ncols         193
nrows         126
xllcorner     -8252.3921517487
yllcorner     3014732.5128431
cellsize      29.112647571874
NODATA_value  -9999
40 41 42 43 44 45 46 47 48 48 49 49 50 50 50 50 51 53 54 55 55 56 58 59 60 61 62 62 63 63 64 64 64 63 62 61 61 62 63 64 64 64 63 62 61 58 57 57 56 56 56 56 56 56 56 57 57 58 58 56 51 48 46 44 43 42 42 42 39 35 32 29 27 26 25 25 24 24 25 25 25 25 26 27 29 30 30 30 30 29 29 29 30 31 32 32 33 33 33 33 32 32 33 33 31 30 30 31 31 32 32 33 33 33 33 33 32 32 32 32 33 34 33 31 31 30 31 31 32 32 32 32 31 31 31 31 31 32 32 32 32 33 34 35 36 36 36 36 36 36 36 35 35 35 35 35 35 35 35 35 35 36 36 38 38 39 40 41 42 42 42 42 42 42 42 44 46 48 51 52 54 56 57 59 60 60 60 60 58 57 56 55 54 
39 42 43 44 45 45 46 47 47 48 48 49 50 51 52 52 54 56 57 56 57 58 59 60 61 61 61 62 62 62 63 63 63 63 63 63 63 64 65 65 65 64 63 61 59 56 56 55 55 56 55 55 55 55 55 56 57 58 58 56 50 47 44 42 41 40 39 39 37 34 30 28 26 24 23 24 24 24 25 26 27 27 28 29 30 31 32 31 31 30 30 30 30 31 31 32 33 33 33 33 33 32 32 32 32 31 31 31 31 32 32 32 33 33 33 33 32 32 32 32 32 33 33 32 31 31 31 32 32 32 32 32 32 31 31 31 31 31 31 31 31 32 33 33 34 34 35 35 35 34 34 34 34 34 34 34 34 34 35 35 36 36 37 39 40 40 41 42 42 43 42 42 41 41 42 43 45 47 51 53 55 57 59 61 61 61 60 59 57 55 54 53 51 
40 43 45 46 46 46 46 47 47 47 48 49 50 52 53 54 57 58 58 58 58 59 60 61 61 61 60 60 60 61 61 62 62 63 63 64 65 65 65 65 64 63 62 59 57 55 55 55 55 55 55 55 54 54 54 55 56 57 57 55 48 45 42 40 39 37 36 36 35 32 29 26 25 24 23 24 25 25 26 27 28 28 29 29 30 32 33 32 31 31 30 30 30 31 31 32 33 33 33 33 33 33 32 32 33 32 32 32 32 32 32 32 33 33 32 32 32 32 32 32 31 32 33 32 31 31 32 32 32 32 32 32 32 31 31 31 31 31 31 31 31 32 32 33 33 33 34 34 33 33 33 33 33 33 33 33 33 34 34 35 36 37 38 40 41 42 42 43 43 43 43 42 41 41 42 43 44 46 50 52 55 58 60 61 61 60 58 56 54 53 52 50 49 
42 45 46 47 47 47 47 47 47 48 48 49 51 52 54 55 59 58 58 58 59 60 61 61 61 61 60 59 59 59 60 61 62 63 64 65 65 66 65 64 63 62 60 58 56 54 54 55 55 55 55 54 53 53 53 53 54 55 55 53 47 44 41 38 37 35 33 33 33 31 28 25 24 23 23 25 26 27 28 28 29 29 29 30 30 32 33 32 32 31 30 30 31 31 32 33 33 33 33 33 33 33 32 32 34 34 33 32 32 32 32 32 33 33 32 32 32 32 31 31 31 31 32 32 32 32 32 32 32 32 32 32 31 31 31 31 30 30 30 31 31 32 33 33 33 33 33 33 33 32 32 32 32 32 32 32 33 33 34 35 36 38 39 41 42 43 43 43 43 43 43 42 42 42 42 43 44 46 50 52 55 58 60 60 60 58 55 52 51 50 50 49 49 
45 47 48 48 48 48 48 48 48 48 49 50 51 53 54 56 59 58 58 59 60 61 62 62 62 61 60 59 58 58 59 60 61 62 63 65 65 65 64 63 61 60 58 56 55 53 53 54 54 54 54 53 52 51 51 52 53 53 53 51 45 42 39 37 35 33 31 31 32 31 28 25 24 23 24 27 28 29 29 29 29 30 30 30 31 32 33 32 31 31 30 30 31 32 32 33 33 33 33 33 33 33 32 32 33 34 34 33 33 32 32 32 33 33 33 33 32 32 31 31 30 31 31 32 33 32 32 32 32 32 32 32 31 31 31 31 30 30 30 30 31 32 33 33 33 33 33 33 33 33 33 33 33 32 32 32 32 33 34 35 37 38 40 42 43 44 44 44 44 44 44 43 43 43 43 43 44 46 50 53 55 57 58 58 57 54 51 49 48 48 48 49 50 
46 48 49 49 49 49 49 49 49 49 50 51 52 54 55 57 58 58 58 58 59 60 62 63 63 62 61 60 58 57 57 58 59 61 62 64 64 64 63 61 59 57 56 54 53 52 52 52 52 52 52 51 51 50 50 51 51 51 50 48 43 40 37 35 33 31 30 30 31 31 29 26 25 24 25 28 30 30 30 30 30 30 30 31 32 33 32 31 31 31 30 31 32 32 33 34 34 34 33 33 33 32 32 32 32 33 34 34 34 33 33 33 33 33 33 33 33 33 32 31 30 30 31 32 33 33 32 32 32 32 32 32 31 31 31 31 30 30 30 30 31 33 34 34 34 34 34 34 34 34 34 33 33 33 32 32 32 32 33 35 37 39 40 43 44 44 44 45 45 45 45 45 45 44 44 44 45 46 50 53 55 56 56 55 53 50 47 45 45 45 46 48 50 
47 49 49 49 49 50 50 51 51 51 51 52 53 54 56 58 58 57 57 58 59 60 62 63 63 63 62 60 58 57 56 56 57 59 61 62 62 62 61 59 57 55 53 52 51 50 50 49 49 49 49 49 49 49 49 49 49 48 47 45 41 38 36 34 32 30 30 30 30 30 28 26 26 26 27 29 30 31 30 30 30 31 31 32 32 32 31 31 30 30 30 31 32 33 34 35 35 34 34 33 33 32 32 32 32 32 33 33 34 35 34 33 34 34 34 33 33 33 32 31 31 31 31 31 32 33 33 32 32 32 32 32 32 32 31 31 30 30 30 30 31 33 34 34 35 35 35 34 34 34 34 33 33 32 32 31 31 32 33 35 37 39 40 43 44 44 45 45 45 46 46 47 47 46 46 45 45 46 50 52 53 54 53 52 49 46 44 43 42 43 45 47 50 
48 49 49 49 50 50 51 52 53 53 53 53 54 55 56 58 58 57 57 58 59 61 62 64 64 64 62 60 58 56 55 55 55 56 58 59 60 60 59 57 55 53 51 50 49 47 47 46 45 45 45 46 46 47 47 47 46 45 44 42 38 36 34 33 31 30 30 31 31 29 28 27 27 28 28 30 30 31 31 31 31 31 31 31 31 31 30 30 30 29 30 31 32 33 35 36 35 35 34 33 32 32 32 32 32 32 32 32 33 34 34 34 34 34 34 34 34 34 33 32 32 31 31 31 32 33 33 33 32 32 32 32 32 32 32 31 30 30 29 30 31 32 33 34 35 35 35 35 35 34 34 33 32 32 31 31 32 32 33 35 36 38 40 43 43 44 45 45 45 46 47 48 48 47 47 46 45 46 49 50 51 51 50 48 45 44 42 41 41 43 45 47 49 
48 49 50 50 50 51 52 54 54 55 54 54 54 55 55 57 59 58 58 59 60 61 63 64 65 64 63 61 59 57 54 54 54 54 55 56 57 57 56 55 53 51 49 48 47 45 44 43 42 42 42 43 43 44 44 44 43 42 40 38 35 34 33 32 31 30 31 32 32 30 29 29 29 29 30 31 31 31 31 31 31 30 30 30 30 30 30 30 30 29 30 31 33 34 36 36 36 35 34 33 32 32 32 31 31 32 32 32 32 33 33 34 34 34 34 34 34 34 33 32 32 31 31 31 32 32 33 33 32 32 32 32 33 33 32 31 30 30 29 29 30 31 32 33 34 34 34 34 35 34 33 32 31 31 31 32 32 33 34 35 36 37 39 42 43 44 45 45 45 46 47 48 48 48 47 46 46 45 47 47 48 47 46 44 42 41 39 40 42 44 45 46 48 
49 49 50 50 51 52 54 55 56 56 55 55 54 54 54 55 59 59 59 60 61 62 64 65 65 64 62 61 59 57 55 54 53 53 53 54 54 54 53 52 51 49 47 46 46 44 42 41 40 40 40 40 41 41 41 41 39 38 37 35 33 33 32 31 31 31 33 33 32 30 30 30 30 31 31 31 31 32 32 31 30 29 29 30 30 30 30 30 30 29 30 31 33 35 36 36 36 35 33 32 32 32 31 31 31 31 31 31 31 32 32 32 33 33 33 33 33 33 33 32 32 32 31 32 32 32 33 33 33 32 32 32 32 33 32 31 30 30 29 29 29 30 31 31 32 32 33 33 34 34 33 32 31 31 31 32 33 33 34 35 36 37 38 42 43 45 45 45 45 46 47 47 47 48 48 47 46 46 46 46 45 45 44 42 40 40 40 41 43 45 47 47 47 
49 49 49 50 51 53 54 55 56 56 56 55 54 53 53 54 58 60 61 61 62 64 65 65 65 64 62 61 59 58 55 53 52 52 52 52 52 52 51 50 48 47 46 45 45 42 41 40 38 38 38 38 38 38 38 37 36 35 34 33 31 31 30 30 31 32 34 33 31 30 30 31 31 32 32 33 33 33 33 31 30 29 29 30 31 31 31 31 30 30 30 31 33 35 35 35 35 34 33 32 31 31 31 31 30 30 30 31 31 31 31 31 31 32 33 33 33 33 32 32 32 32 31 32 32 32 33 33 33 32 32 32 32 33 33 32 31 30 30 29 29 30 31 31 32 32 33 33 34 34 33 32 31 31 31 32 33 33 34 35 36 37 38 42 43 45 45 45 45 46 47 47 47 48 48 47 46 46 46 46 45 45 44 42 40 40 40 41 43 45 47 47 47 
49 48 49 50 51 53 54 56 57 57 57 56 54 53 53 53 58 61 62 63 63 64 65 65 65 64 62 61 59 58 55 53 52 52 52 52 52 52 51 50 48 47 46 45 45 42 41 40 38 38 38 38 38 38 38 37 36 35 34 33 31 31 30 30 31 32 34 33 31 30 30 31 31 32 32 33 33 33 33 31 30 29 29 30 31 31 31 31 30 30 30 31 33 35 35 35 35 34 33 32 31 31 31 31 30 30 30 31 31 31 31 31 31 32 33 33 33 33 32 32 32 32 31 32 32 32 33 33 33 32 32 32 32 33 33 32 31 30 30 29 29 29 30 30 31 31 32 32 33 33 33 32 32 32 32 33 34 34 35 35 36 37 38 42 44 45 46 46 47 48 48 48 47 48 48 48 47 46 45 45 45 45 44 42 40 40 41 42 44 46 48 48 48 
49 48 49 50 51 53 54 56 57 57 57 56 54 53 53 53 58 61 62 63 63 64 65 65 65 64 62 61 59 58 55 53 52 51 51 50 50 49 49 48 47 46 46 45 44 42 41 39 38 37 36 36 36 36 35 34 33 32 32 31 30 30 29 29 31 32 33 32 31 31 31 32 32 33 34 35 35 34 33 31 30 30 30 31 32 32 32 32 31 30 30 31 32 34 34 34 34 33 32 31 31 30 30 30 29 29 30 30 31 31 31 31 31 31 32 33 33 33 33 32 32 32 31 32 32 32 32 33 33 32 32 32 32 32 33 32 31 31 30 30 30 29 29 30 30 31 31 32 34 34 34 33 33 33 33 34 34 35 35 35 36 37 38 43 45 46 47 48 49 50 50 49 48 49 49 49 48 47 46 45 46 46 45 43 39 39 40 41 43 44 46 49 50 
48 47 48 50 51 53 54 56 57 58 58 57 55 54 53 54 57 60 63 64 64 64 65 65 64 63 62 60 59 58 54 53 52 51 50 50 49 48 47 47 46 46 46 45 45 43 41 40 38 37 36 35 34 33 32 31 31 30 29 29 29 29 28 29 31 32 32 31 31 31 32 33 34 35 36 35 34 33 32 31 31 31 31 32 32 33 33 32 32 30 30 31 31 32 33 32 32 32 31 31 30 30 29 29 29 29 30 30 31 31 31 31 31 31 31 32 32 33 33 33 32 31 31 31 32 32 32 33 34 33 32 32 32 32 32 32 32 31 31 30 30 30 30 30 31 31 32 33 35 35 35 35 34 34 34 34 35 35 35 35 36 37 38 44 46 48 49 49 51 52 52 51 49 49 50 50 49 48 47 47 47 47 46 43 39 38 39 40 41 42 45 48 51 
48 47 48 49 50 52 54 55 56 57 58 58 56 55 55 56 58 59 62 63 64 64 64 64 63 62 61 60 59 57 54 53 51 50 50 50 49 48 47 46 46 46 46 46 46 44 43 41 40 38 37 36 34 32 31 30 29 28 28 27 28 28 27 28 32 32 31 31 31 32 33 34 36 36 36 34 33 32 31 31 31 32 32 33 33 33 33 33 32 31 30 30 30 31 31 31 31 31 30 30 30 29 29 29 29 30 30 31 31 31 31 31 31 31 31 31 32 32 32 33 33 32 31 31 31 32 32 33 34 34 33 32 32 32 32 32 32 31 31 31 31 31 31 32 32 33 33 34 35 35 36 36 35 35 35 35 35 35 35 36 37 38 39 45 48 50 51 51 53 53 52 51 49 49 50 50 49 49 49 50 49 48 46 44 40 39 38 39 40 42 44 47 51 
49 47 48 48 49 50 52 53 55 56 57 57 56 55 56 58 59 60 61 62 63 63 63 62 62 62 61 60 59 58 54 53 51 51 50 50 49 48 47 47 46 46 46 46 46 45 44 43 41 39 38 36 33 32 32 31 29 29 28 26 27 27 27 29 32 32 32 31 32 33 35 36 36 35 34 32 32 31 31 31 32 32 32 33 33 33 33 33 32 31 30 30 30 30 30 30 30 30 29 29 29 29 29 30 30 31 31 31 32 31 31 31 30 30 31 31 31 31 31 31 32 32 31 31 31 31 31 33 34 34 33 32 32 32 31 32 32 32 32 31 31 31 32 32 33 33 34 34 35 36 36 36 36 35 35 35 35 36 36 37 38 40 41 47 50 52 53 53 53 53 51 50 49 49 50 49 49 49 51 51 51 50 48 46 43 41 39 39 39 41 43 46 49 
49 48 48 48 48 49 50 51 53 55 56 56 55 55 56 58 60 60 59 61 63 62 61 61 61 61 60 60 59 58 55 53 52 52 51 50 50 49 48 48 47 47 47 47 47 46 45 43 42 40 38 35 32 31 33 32 31 30 28 27 27 28 28 30 33 33 32 32 33 34 36 36 35 34 33 32 31 31 31 31 32 32 32 32 32 32 32 32 32 31 30 30 30 30 30 30 30 30 29 29 29 29 30 31 32 32 32 32 32 31 31 30 29 29 29 30 30 30 29 29 29 30 30 31 31 31 31 32 33 33 33 32 32 32 31 31 31 32 32 32 32 32 33 33 33 34 34 34 35 36 36 36 36 35 34 35 36 37 39 40 42 43 45 49 52 54 54 54 53 52 50 50 49 49 49 49 49 50 52 52 52 51 50 48 46 43 41 40 39 40 42 44 47 
50 48 48 47 47 47 48 49 51 53 54 55 54 54 55 58 59 59 58 60 62 61 60 60 60 60 60 60 59 58 55 54 53 53 53 52 51 50 49 48 48 47 47 47 47 46 45 43 41 39 37 34 31 30 31 32 31 30 29 28 28 29 30 32 35 34 33 33 34 35 36 35 34 33 33 31 31 31 31 31 31 31 31 31 31 31 32 32 31 30 30 30 30 30 30 30 30 30 29 29 29 30 31 31 33 33 32 32 32 31 30 29 28 27 27 28 28 28 27 27 27 27 28 29 29 29 29 30 31 32 32 32 32 32 31 31 31 32 32 32 32 32 33 33 33 33 34 34 35 36 36 35 35 35 35 36 37 39 41 43 44 46 48 52 54 55 56 55 54 53 51 50 49 48 47 48 49 50 51 51 52 51 50 48 47 45 44 42 41 41 42 43 46 
50 49 48 46 46 46 46 48 49 51 52 53 53 52 53 56 58 58 58 60 61 60 59 59 60 60 59 59 58 57 56 55 55 54 54 53 52 51 50 49 49 48 48 47 46 45 43 41 39 37 35 32 29 29 30 31 30 30 29 29 29 30 31 33 36 35 34 34 35 35 34 33 33 32 32 30 30 30 30 30 31 30 30 30 30 30 30 30 30 30 30 29 29 30 30 30 30 30 30 30 30 30 31 32 33 33 32 32 31 30 29 28 26 26 25 25 26 26 26 25 25 25 25 25 25 25 26 27 29 30 31 31 32 32 32 32 32 32 32 32 32 32 32 32 33 33 33 33 34 35 35 35 35 35 36 37 39 41 42 43 45 47 49 53 55 56 57 57 56 54 51 49 48 46 46 46 46 48 48 48 49 50 49 48 47 46 44 43 42 42 42 43 44 
50 49 47 46 45 45 46 47 49 50 51 52 52 52 53 55 56 58 59 60 61 60 58 59 59 59 59 58 57 57 57 57 57 56 56 55 54 53 52 51 50 49 48 47 46 43 41 39 36 35 33 31 28 27 28 29 28 28 29 29 30 31 32 34 35 35 34 34 35 35 33 32 32 31 31 30 30 30 30 30 30 30 29 29 29 29 29 29 29 29 29 29 29 30 30 30 30 30 30 30 30 30 30 31 32 32 31 31 30 30 28 27 26 25 25 25 25 25 26 24 24 24 24 24 24 24 24 24 26 29 30 30 31 31 32 32 32 32 32 32 32 32 32 32 32 32 32 32 34 35 35 35 35 36 37 38 39 40 42 44 46 47 49 52 54 56 57 56 54 52 50 48 46 45 44 43 44 45 45 45 47 48 48 48 47 45 44 42 41 41 41 41 41 
50 48 47 46 45 45 46 48 49 50 51 51 52 53 54 56 58 59 60 61 61 60 58 58 59 59 58 58 57 57 58 58 58 58 58 57 56 55 54 53 52 50 49 47 45 41 39 36 34 33 32 31 29 27 27 28 28 28 29 29 29 30 31 33 34 34 34 34 34 33 31 31 31 30 30 29 29 29 29 30 30 30 29 29 29 29 29 29 28 28 28 28 28 29 30 30 30 30 30 30 30 30 30 30 31 31 31 31 30 30 29 28 27 26 26 25 25 26 26 24 23 24 25 25 25 25 24 23 25 28 29 29 29 30 31 31 31 31 32 32 32 32 32 32 32 31 31 32 33 34 35 35 36 37 38 39 39 40 41 43 45 46 47 49 52 55 55 54 52 51 49 47 45 43 42 41 41 43 42 43 44 45 46 46 46 45 43 41 40 39 38 37 37 
51 48 47 46 46 47 48 49 50 51 51 52 53 54 56 59 60 61 62 62 62 60 58 58 58 58 58 58 58 58 59 59 59 59 59 59 58 57 56 55 53 51 49 47 44 39 36 34 32 31 31 32 31 29 29 31 32 30 30 29 29 29 30 32 33 33 33 33 32 31 30 30 30 30 29 29 29 29 30 30 30 30 30 29 29 29 29 29 28 28 27 27 27 28 29 29 29 30 30 30 30 30 30 30 31 31 31 31 31 30 30 29 28 28 28 27 27 27 27 25 24 24 25 25 25 25 25 25 26 28 28 28 28 29 30 31 31 31 31 31 32 32 32 32 32 31 31 32 33 34 35 35 36 37 39 40 39 39 40 41 43 44 45 47 50 53 52 51 50 49 48 46 44 42 40 39 39 40 40 41 42 43 44 45 45 44 42 40 38 36 35 34 34 
51 48 47 47 47 48 49 51 52 52 52 53 54 55 57 61 62 63 63 62 62 61 59 58 58 58 58 58 58 59 59 60 60 60 60 60 59 58 57 56 54 52 49 46 43 36 33 31 30 30 31 32 32 31 32 33 32 31 30 29 29 29 29 31 32 31 32 31 30 29 29 29 29 29 29 29 29 29 30 30 30 30 30 30 29 29 29 29 29 28 27 27 27 27 28 28 29 29 30 30 30 30 31 31 32 32 32 32 32 31 31 30 30 30 30 29 29 29 29 26 25 24 24 24 24 25 25 25 27 29 29 27 27 27 28 29 30 30 30 31 31 32 32 32 32 32 32 32 34 34 35 35 36 37 39 39 39 38 39 39 40 41 42 46 49 50 49 48 48 47 46 44 41 39 37 37 37 38 39 39 41 42 43 44 44 43 41 39 36 34 33 32 32 
51 49 48 48 49 50 51 52 53 54 54 55 56 57 59 63 64 64 63 63 63 62 59 58 58 58 58 58 59 59 59 59 59 59 60 60 60 60 59 57 55 52 48 45 41 33 31 29 29 29 30 31 32 33 33 32 31 30 30 30 28 28 28 29 30 30 30 29 28 28 28 28 28 28 28 28 29 29 30 31 31 31 31 30 30 30 30 30 29 29 28 28 28 28 28 29 29 30 30 31 31 32 32 33 34 34 34 34 33 33 32 31 31 31 31 31 31 31 30 28 27 26 25 25 25 24 24 24 27 29 29 28 27 26 27 27 28 29 29 30 31 31 32 32 32 32 33 33 35 35 36 36 36 37 38 39 38 37 37 38 38 39 40 45 48 49 47 46 46 45 43 41 39 37 35 35 35 37 38 39 41 42 43 43 43 42 40 37 34 32 31 30 30 
50 49 49 49 50 51 53 54 55 55 56 57 58 59 61 63 64 64 64 63 63 62 60 58 58 59 59 59 59 59 58 58 58 59 60 61 61 61 60 58 55 51 47 43 39 32 29 28 28 28 30 31 32 33 33 32 32 31 30 30 29 28 28 28 28 28 28 28 27 27 28 28 28 28 28 28 29 29 30 31 32 32 32 31 31 31 31 31 31 30 29 29 29 29 29 30 30 30 31 31 32 33 34 34 35 35 35 35 34 33 33 32 32 32 32 32 31 31 31 30 29 28 28 27 27 26 25 24 26 28 29 28 27 27 27 27 27 27 28 29 30 30 31 32 32 32 33 34 35 36 36 36 36 37 38 38 38 37 37 37 37 38 39 45 47 47 46 45 44 43 41 39 37 35 34 34 35 37 39 40 41 42 43 43 42 40 38 35 33 31 30 29 29 
49 49 49 50 51 52 54 55 56 57 58 58 59 61 62 64 64 65 64 63 63 63 61 59 59 59 59 59 59 59 58 57 57 58 59 61 62 62 60 58 54 50 46 41 37 30 28 27 27 28 29 30 32 33 33 33 32 32 31 31 29 28 28 28 27 27 27 27 27 27 27 28 28 28 28 28 29 30 31 31 32 32 32 32 32 32 33 32 32 31 30 30 30 30 30 31 31 31 32 32 33 33 34 35 35 36 35 35 34 34 33 33 32 32 32 31 31 31 31 30 30 30 29 29 29 28 27 27 27 29 29 28 27 28 28 27 26 25 26 27 29 30 30 30 30 30 32 33 35 36 36 37 37 37 38 39 39 38 38 37 37 38 39 45 46 46 45 45 44 42 40 38 36 35 34 34 36 38 40 40 41 42 42 41 40 38 36 34 32 30 29 29 29 
48 49 49 50 51 53 54 56 57 58 59 59 60 61 62 64 64 65 65 64 64 64 62 60 60 60 60 59 59 59 57 57 57 58 59 61 62 61 60 57 53 48 43 39 36 30 28 27 27 27 29 30 31 32 33 33 32 32 32 31 29 29 28 28 28 28 28 28 28 28 28 28 28 29 29 29 29 30 31 31 32 32 32 33 33 33 33 33 32 31 31 31 31 31 31 31 31 31 32 32 33 33 33 34 34 35 35 34 34 34 33 32 32 32 31 31 30 30 30 30 30 30 30 30 30 30 29 29 30 30 29 29 28 28 28 26 25 25 25 26 28 28 27 27 27 27 28 29 32 34 35 36 36 37 38 39 39 40 40 38 38 39 41 45 45 45 45 45 44 42 40 38 36 35 35 35 37 39 40 41 41 41 40 39 38 36 34 32 31 30 29 29 29 
48 49 50 51 52 53 55 57 58 59 60 60 60 61 62 63 64 65 65 65 65 64 63 61 61 60 60 60 59 59 58 57 57 58 59 60 61 60 58 55 50 46 42 39 36 30 29 28 27 27 28 29 30 31 32 32 32 32 32 31 30 29 29 28 28 28 28 28 28 28 29 29 29 29 29 30 30 30 31 32 32 32 32 33 33 34 34 33 32 32 31 31 31 31 31 31 31 31 31 32 32 32 32 32 33 33 33 33 33 33 33 32 32 31 31 30 30 30 30 30 30 30 30 30 30 30 30 31 31 31 29 29 29 29 28 26 25 25 25 26 27 26 25 25 24 25 26 27 28 30 33 34 35 36 37 37 38 39 39 39 39 40 42 43 43 44 44 44 43 41 39 37 36 35 35 36 38 40 40 40 40 40 39 37 36 34 33 32 31 30 30 30 29 
48 50 50 51 53 54 56 58 59 60 60 60 60 60 60 62 63 64 65 65 65 64 62 62 62 61 61 60 60 59 59 58 58 58 59 59 59 57 54 51 48 45 43 40 36 31 29 28 28 28 28 28 29 30 30 31 31 32 32 32 31 30 29 29 29 29 29 29 29 29 30 30 30 30 30 30 31 31 31 32 32 32 32 32 32 33 33 33 32 32 32 31 31 31 31 31 31 31 31 31 32 31 31 31 31 32 32 32 33 33 33 33 32 31 30 30 30 30 30 30 30 29 29 29 29 29 30 31 32 31 30 29 30 30 29 27 27 26 26 27 27 26 25 24 24 24 25 26 28 29 31 33 35 36 36 36 37 37 37 38 38 39 40 39 40 41 42 42 42 40 39 37 36 35 35 36 38 39 39 38 38 38 37 35 34 33 32 31 31 31 31 30 30 
48 50 51 52 53 55 57 59 60 61 61 60 60 59 59 61 62 63 64 65 64 63 62 62 62 62 61 61 60 60 59 59 59 58 58 57 56 53 50 48 46 44 43 40 35 31 29 28 28 28 28 28 28 28 29 29 30 31 32 32 31 31 30 30 29 29 29 29 29 29 30 30 30 30 30 30 31 31 31 32 32 32 32 32 32 33 33 33 32 32 32 31 31 31 31 31 31 31 31 31 32 31 31 31 31 32 32 32 33 33 33 33 32 31 30 30 30 30 30 30 30 29 29 29 29 29 30 31 32 31 30 29 30 30 29 27 27 26 26 27 27 26 25 24 24 24 25 26 28 29 31 33 35 36 36 36 37 37 37 38 38 39 40 39 40 41 42 42 42 40 39 37 36 35 35 36 38 39 39 38 38 38 37 35 34 33 32 31 31 31 31 30 30 
48 50 51 52 53 55 57 59 60 61 61 60 60 59 59 61 62 63 64 65 64 63 62 62 62 62 61 61 60 60 59 59 59 58 58 57 56 53 50 48 46 44 43 40 35 31 29 28 28 28 28 28 28 28 29 29 30 31 32 32 31 31 30 30 29 29 30 30 30 30 30 31 31 31 31 31 31 32 32 32 32 32 32 31 32 32 32 32 32 32 32 32 31 31 31 31 31 31 31 32 31 31 31 31 31 31 31 32 33 33 33 33 32 31 30 30 30 30 30 30 30 29 29 29 29 29 29 31 32 31 30 30 30 31 31 30 29 28 28 28 28 28 27 25 24 25 26 27 28 28 29 32 34 35 35 36 36 35 35 35 36 37 37 36 37 38 39 39 39 38 37 36 36 35 35 36 37 38 37 36 35 35 34 34 33 32 32 32 32 32 32 31 31 
48 49 51 52 54 56 58 60 61 61 61 61 60 59 59 60 61 62 63 63 62 62 62 62 62 62 62 61 61 60 60 60 59 58 57 55 52 48 46 46 45 43 41 37 33 30 29 29 29 29 29 28 28 28 28 28 29 30 31 32 32 32 31 31 30 30 30 31 31 31 31 31 32 32 32 32 32 32 32 32 31 31 31 31 31 31 31 31 32 32 32 32 32 31 31 31 31 31 32 32 32 31 31 31 31 31 31 32 33 33 33 33 32 31 30 30 30 31 31 30 30 29 29 29 29 29 29 30 32 31 30 30 30 31 32 31 30 30 29 29 29 29 28 27 27 27 27 26 27 27 28 30 33 34 34 35 34 33 33 34 35 36 35 34 35 35 36 36 36 36 35 35 35 34 34 34 35 35 36 34 33 33 33 32 32 32 32 32 32 32 32 31 31 
47 48 49 51 53 56 58 60 61 62 62 61 60 59 59 59 60 61 62 61 60 60 61 62 62 62 62 61 61 60 60 60 59 57 55 51 48 45 44 43 42 40 37 34 31 30 30 30 30 30 30 29 28 28 27 28 28 30 31 32 33 33 32 31 31 31 31 31 31 31 32 32 32 33 33 32 32 32 32 31 31 30 30 30 30 30 31 31 31 32 32 32 32 31 31 31 31 31 32 32 32 31 31 31 31 31 31 32 33 33 33 33 32 31 31 31 31 31 31 31 30 29 29 29 29 29 29 30 31 32 31 30 30 31 32 32 32 31 30 30 30 29 29 28 28 28 28 28 27 27 28 30 32 33 33 33 32 31 31 32 33 34 33 33 33 33 34 33 33 34 34 34 34 33 33 33 33 33 34 33 32 32 32 32 32 32 32 32 32 32 32 32 31 
45 45 47 48 51 54 57 60 61 62 62 61 60 59 59 59 60 61 61 59 59 59 60 61 62 62 62 61 61 60 59 59 57 55 52 48 44 41 41 41 39 36 33 31 30 30 30 31 31 31 31 30 29 28 27 28 28 30 31 32 33 33 32 32 31 31 31 31 32 32 32 32 33 33 34 33 33 32 32 32 31 30 30 30 30 30 31 31 31 31 31 32 31 31 31 31 31 31 31 31 31 31 31 31 31 31 31 32 32 32 32 32 31 31 31 31 31 32 32 31 30 30 29 29 29 29 29 29 30 32 31 30 29 30 31 32 32 31 31 31 31 30 30 29 29 29 29 29 28 27 28 30 31 31 31 31 30 29 29 30 31 32 32 31 32 32 32 31 31 32 32 32 32 32 32 31 31 31 33 32 31 31 31 31 31 31 32 32 32 32 32 31 31 
45 43 43 45 49 53 56 59 61 62 62 61 60 59 59 59 60 61 61 59 58 58 59 60 61 62 62 61 60 59 57 56 55 52 49 45 41 38 38 38 36 33 30 30 30 30 31 32 32 32 32 31 30 29 28 28 29 30 31 32 33 32 32 31 31 31 31 32 32 32 33 33 33 33 34 34 33 32 32 32 31 30 30 30 30 30 30 30 30 30 31 31 31 31 31 31 30 30 30 30 30 30 30 31 31 31 31 31 31 31 31 31 31 31 31 32 32 32 32 31 30 30 29 29 29 29 29 29 29 30 31 30 29 29 30 32 32 31 31 31 31 31 31 30 30 29 29 30 29 28 28 29 29 29 29 29 28 28 28 28 29 30 31 30 31 31 30 30 30 30 30 30 30 30 30 30 30 30 32 31 31 31 31 31 31 31 31 31 31 31 31 31 30 
46 42 41 43 47 52 56 59 61 62 62 61 60 59 59 59 60 61 60 58 56 57 57 58 60 61 61 60 59 58 55 53 51 48 45 42 38 36 35 34 32 31 30 30 30 31 31 32 32 32 32 31 30 30 29 29 30 31 32 32 33 32 31 31 31 31 32 33 33 33 33 33 33 33 34 34 33 32 32 31 30 30 30 30 30 30 30 30 30 29 29 30 30 30 31 30 29 28 28 29 29 29 30 31 31 31 31 31 30 30 30 30 30 31 31 32 32 32 32 30 29 29 29 29 28 28 28 28 29 29 29 30 29 28 30 31 32 31 31 32 32 32 31 31 31 30 30 30 30 30 30 29 28 27 27 27 27 27 27 27 27 28 29 29 29 29 30 29 29 29 29 29 29 29 29 29 29 30 32 32 32 32 31 31 31 30 30 30 30 31 30 30 29 
48 43 41 43 47 52 56 60 62 63 62 61 60 59 58 59 60 61 60 57 55 56 56 57 59 60 60 59 58 56 51 49 47 44 42 39 37 35 33 32 31 31 31 31 31 31 31 32 32 32 32 31 31 30 29 29 30 31 31 32 32 31 31 31 31 32 33 34 34 33 33 33 32 32 33 33 33 32 31 30 29 29 29 29 29 29 29 29 29 28 28 29 29 30 30 29 27 27 27 27 28 29 30 31 32 32 31 30 30 30 30 30 30 31 31 32 32 32 32 30 29 28 28 28 28 28 28 28 28 28 29 30 30 28 29 31 31 31 32 32 32 32 32 31 31 31 31 31 31 31 31 30 29 28 27 27 28 28 28 27 26 26 27 27 27 28 29 29 29 29 29 29 29 29 28 28 29 30 32 33 32 32 32 31 31 30 30 30 30 30 30 29 29 
49 45 43 44 48 53 57 60 62 63 62 61 60 59 58 59 60 60 59 56 55 55 56 57 59 60 60 59 57 54 48 46 43 41 40 38 36 34 33 32 31 31 31 31 31 31 31 31 31 31 31 30 30 30 29 29 30 30 31 32 32 31 31 31 32 33 34 35 35 34 33 32 32 32 33 33 33 32 31 30 29 29 28 28 28 29 29 28 28 28 28 29 29 29 29 28 27 26 26 27 28 30 31 32 32 32 31 30 30 30 30 30 30 31 32 32 32 32 31 29 28 28 28 28 28 28 28 28 28 28 28 29 30 29 29 30 31 31 31 32 32 32 31 31 31 31 31 32 32 32 32 31 30 29 28 29 29 29 29 27 26 26 27 27 26 27 28 29 29 30 30 30 29 29 28 29 29 30 33 34 33 32 32 31 30 30 29 29 30 30 30 29 29 
50 47 45 46 50 54 58 61 62 63 62 61 60 59 58 59 59 60 59 57 55 55 56 58 59 61 60 59 56 53 46 43 40 39 37 36 34 33 32 31 31 31 31 31 31 31 31 30 30 30 30 29 29 29 29 29 29 30 31 31 31 31 31 31 33 34 35 35 35 34 33 32 31 31 32 33 33 32 31 30 29 28 28 28 28 29 29 29 29 28 29 29 29 29 29 28 27 27 27 28 29 30 32 32 32 32 31 31 30 30 30 31 31 32 32 32 32 31 30 28 28 27 27 27 27 27 28 28 28 28 28 28 29 30 29 30 31 31 31 31 31 31 31 31 31 31 31 32 32 32 32 31 31 30 30 30 31 31 30 29 27 26 28 29 26 26 28 29 30 31 31 31 30 30 29 29 30 30 33 34 33 32 31 31 30 30 29 29 30 30 30 30 29 
50 48 47 48 51 55 58 60 62 62 62 61 59 58 58 58 59 59 59 58 57 56 57 59 61 62 60 58 54 50 43 40 39 37 36 35 33 32 31 30 30 30 31 31 31 30 30 29 29 29 29 28 28 28 28 28 29 29 30 29 30 30 30 31 33 34 35 35 35 34 33 31 31 30 31 32 32 32 31 30 29 28 28 28 29 29 29 29 29 29 29 29 29 30 29 28 28 28 29 29 30 31 31 32 32 31 31 31 31 31 31 32 32 33 33 33 32 31 30 28 27 27 27 27 27 28 28 28 28 28 28 28 29 31 30 30 30 31 31 31 31 31 31 30 30 30 31 31 31 31 31 31 31 31 31 31 32 32 32 30 29 27 28 29 26 27 29 30 31 32 32 32 31 30 30 29 30 30 32 33 32 31 31 30 30 30 30 30 30 31 31 30 29 
50 49 48 49 52 55 58 60 61 61 61 60 59 58 57 58 59 59 59 59 59 59 60 62 62 61 58 54 50 45 38 37 37 36 35 34 32 31 30 29 29 29 30 30 30 30 30 29 29 29 28 28 28 28 28 28 28 28 29 28 29 29 29 31 32 33 34 35 35 34 33 31 30 30 30 31 32 32 31 30 29 29 29 29 29 30 30 30 30 30 30 30 30 31 30 30 30 30 31 31 31 31 31 31 31 31 31 32 32 32 32 32 33 33 33 33 33 31 30 27 27 27 27 27 28 28 28 28 28 28 28 28 28 31 31 30 29 30 31 31 30 30 30 30 30 30 30 30 30 30 30 30 30 30 31 31 32 33 32 31 30 28 28 28 26 26 29 31 32 33 33 33 32 31 30 29 29 30 32 32 31 30 30 30 30 30 30 30 31 31 31 31 29 
50 48 48 50 52 55 57 59 60 60 60 59 59 59 58 58 59 59 60 60 62 63 63 62 60 57 54 49 45 40 34 34 34 35 35 34 32 31 29 28 28 28 29 30 30 30 30 29 29 29 29 28 28 28 28 28 28 28 28 28 28 29 29 30 32 33 34 35 35 34 33 31 30 29 29 30 31 31 31 31 31 30 30 30 30 30 30 30 30 30 30 31 32 32 32 32 33 33 33 32 31 30 30 30 31 31 32 32 33 33 33 33 34 34 34 33 33 31 30 27 27 27 27 28 28 28 29 28 28 27 27 28 28 30 31 30 30 30 31 31 30 29 29 29 29 29 29 29 29 29 29 29 29 30 30 31 32 32 32 32 31 30 29 27 25 26 29 28 28 31 34 34 33 31 30 29 29 29 31 31 30 30 30 30 30 30 30 30 31 31 31 31 30 
49 48 48 50 52 54 56 58 59 60 60 59 59 60 60 59 60 60 61 62 63 64 63 60 56 52 48 44 39 36 31 31 31 33 34 34 32 31 29 28 28 28 29 29 30 30 30 30 30 30 29 29 29 28 28 28 28 28 28 28 29 30 30 31 31 32 33 34 35 34 33 31 30 29 28 29 30 31 31 32 32 31 31 31 31 31 30 30 30 30 30 31 32 33 34 35 35 35 35 33 32 31 30 29 30 31 32 32 33 33 34 34 34 35 34 34 33 31 30 27 27 27 28 28 29 29 29 28 28 27 27 28 28 29 31 31 30 31 31 31 29 29 29 29 29 29 29 29 28 28 28 28 29 30 30 31 32 32 32 32 32 31 31 28 25 25 25 21 20 25 31 34 34 32 30 29 29 29 31 31 30 29 30 30 30 30 30 30 30 30 30 30 30 
48 47 48 49 51 53 55 57 58 59 60 59 60 60 60 61 62 62 62 63 62 62 60 56 52 47 43 38 35 32 30 30 30 31 33 34 33 31 30 29 28 28 29 30 30 31 31 32 31 31 31 31 31 31 30 29 29 29 29 30 31 33 32 31 32 33 33 34 35 34 33 32 30 29 28 28 29 30 31 32 32 32 32 31 30 30 30 30 29 29 29 31 32 34 36 37 38 38 37 35 33 32 30 29 30 30 31 32 33 33 34 34 35 35 35 34 33 31 29 27 27 28 28 29 29 29 29 29 28 27 27 27 27 28 29 31 30 31 31 30 29 29 29 29 29 29 29 28 28 27 27 28 28 29 30 30 31 32 32 33 33 33 33 30 24 21 19 16 16 20 26 32 35 33 31 30 29 29 30 31 30 29 30 30 30 30 29 29 29 29 29 29 29 
47 47 47 48 50 52 54 56 58 59 59 59 60 60 60 62 63 63 62 61 60 58 55 52 47 42 38 34 32 30 29 29 30 31 32 34 34 33 31 30 30 29 30 31 31 33 33 33 33 32 33 33 34 33 32 31 30 30 31 32 33 34 34 34 34 34 34 35 35 34 33 32 31 30 28 28 29 30 31 32 32 32 32 31 30 30 30 29 28 28 29 30 32 35 37 39 40 40 39 38 36 33 31 30 30 31 32 32 33 33 34 34 35 35 35 34 33 31 29 27 28 28 29 29 30 30 29 29 28 28 27 26 27 27 28 30 30 30 31 30 29 29 29 29 29 29 29 29 27 27 27 27 28 28 29 29 30 31 32 33 34 34 34 29 22 17 15 14 15 18 23 30 34 34 32 30 29 29 30 31 30 30 30 30 30 29 29 28 28 28 28 29 29 
48 47 47 47 49 51 53 55 57 58 59 58 59 59 60 60 60 60 60 58 56 53 49 46 42 38 34 32 30 30 29 30 30 31 32 33 34 34 33 32 32 31 31 32 33 34 34 33 32 32 33 33 34 34 33 32 32 31 31 32 32 33 34 36 37 37 36 36 36 35 34 33 32 31 30 30 30 30 31 32 32 33 32 32 31 30 30 29 28 27 28 29 32 35 37 39 41 41 41 40 37 35 33 31 31 31 32 32 33 33 34 34 35 35 35 34 33 31 29 28 28 29 29 30 30 30 30 29 29 28 28 27 27 27 28 30 30 30 30 30 29 29 29 29 29 29 29 29 27 27 26 27 27 28 28 29 30 31 32 33 34 35 35 28 21 17 16 15 17 19 24 29 32 34 33 31 30 29 30 31 31 30 30 30 30 29 29 28 28 29 29 29 30 
48 48 47 47 48 50 52 55 57 57 57 57 57 56 55 56 56 56 55 53 50 47 43 40 37 35 32 31 30 30 30 31 31 31 32 32 33 34 35 34 34 34 33 34 34 34 33 32 31 32 32 33 34 34 33 32 31 30 30 30 31 32 34 37 39 40 39 38 36 36 35 35 35 35 33 32 31 31 31 32 32 33 33 33 32 31 30 29 28 27 27 29 31 34 37 39 40 41 41 40 38 36 34 33 32 32 32 33 33 33 33 34 34 35 35 34 32 31 30 29 29 30 30 30 31 30 30 30 30 29 29 28 27 26 28 30 30 30 30 29 28 28 29 29 30 30 29 29 27 27 27 27 27 27 28 28 29 30 32 33 34 35 36 28 22 19 18 18 18 21 26 29 31 33 33 31 30 29 28 29 30 31 31 31 30 29 29 29 30 31 31 32 31 
49 48 48 48 48 50 52 54 56 56 55 54 52 51 50 52 52 52 50 47 44 41 37 34 32 32 31 31 31 31 31 31 31 31 31 32 32 33 34 35 36 36 36 36 36 34 32 31 31 32 33 34 34 34 33 32 30 29 28 28 30 32 34 37 40 42 42 40 38 36 37 37 38 38 36 34 32 31 31 31 32 33 34 34 33 32 31 29 28 27 28 29 31 33 35 37 38 39 39 38 37 36 34 33 33 33 33 33 33 33 33 33 34 34 34 34 32 31 30 29 29 30 30 30 31 30 30 30 30 29 29 28 27 26 28 30 30 30 30 29 28 28 29 29 30 30 29 29 27 27 27 27 27 27 28 28 29 30 32 33 34 35 36 28 22 19 18 18 18 21 26 29 31 33 33 31 30 29 28 29 30 31 31 31 30 29 29 29 30 31 31 32 31 
50 49 49 49 49 51 52 54 54 56 55 54 52 51 50 52 52 52 50 47 44 41 37 34 32 32 31 31 31 31 31 31 31 31 31 32 32 33 34 35 36 36 36 36 36 34 32 31 31 32 33 34 34 34 33 32 30 29 28 29 30 32 34 37 40 42 42 40 38 36 37 37 38 38 36 34 32 31 31 31 32 33 34 34 33 32 31 29 28 27 28 29 31 33 35 37 38 39 39 38 37 36 34 33 33 33 33 33 33 33 33 33 34 34 34 34 32 31 30 30 30 30 31 31 31 31 31 31 31 30 30 28 27 27 28 30 29 29 29 28 27 28 28 29 29 30 29 29 27 27 27 27 27 27 28 28 29 30 32 33 34 35 34 26 23 20 19 18 18 19 24 29 32 33 32 30 29 28 27 27 28 30 31 31 30 29 29 30 31 32 33 33 31 
50 49 49 49 49 51 52 54 54 53 52 50 48 46 47 48 48 47 45 42 38 35 32 30 29 29 30 33 35 35 33 32 31 31 31 32 32 32 32 34 37 38 38 37 36 33 32 31 31 32 33 34 34 34 33 32 30 29 28 28 29 31 34 37 40 42 43 42 39 37 38 39 41 41 39 36 34 32 31 32 33 34 35 35 34 33 31 30 28 28 29 30 31 32 33 34 35 36 37 36 36 35 34 34 34 34 34 33 33 33 32 32 33 33 34 33 32 31 31 31 31 32 32 32 31 31 31 31 32 31 31 29 28 28 30 30 29 29 29 28 27 27 28 28 29 29 29 29 28 28 27 27 27 28 28 29 29 30 32 33 34 34 31 26 23 20 18 16 16 17 21 27 31 32 30 29 28 27 27 27 27 28 29 30 30 30 30 31 31 31 32 31 31 
50 50 49 50 50 51 52 52 52 51 50 48 45 44 44 45 44 42 39 36 33 31 29 27 27 27 30 35 40 41 34 32 31 30 31 31 32 32 32 34 37 38 38 36 35 32 32 32 32 32 33 34 35 35 34 33 31 30 28 28 29 31 34 37 39 41 42 41 39 38 39 41 42 43 40 37 35 32 31 32 33 35 36 36 35 34 32 30 29 30 31 31 31 32 32 32 33 33 34 34 34 34 33 33 34 34 34 33 32 32 32 32 32 33 33 33 32 31 31 32 33 33 33 33 32 32 32 32 33 33 31 30 30 30 31 30 30 30 29 28 28 28 28 28 29 29 29 29 29 29 28 28 28 28 28 29 30 31 32 33 34 34 31 28 25 20 17 15 15 17 20 25 29 29 28 28 28 29 29 28 27 28 28 28 30 32 32 31 30 30 30 30 30 
49 49 50 50 50 51 51 51 50 49 48 47 44 43 43 42 41 38 35 32 30 28 26 26 26 27 31 37 41 42 35 32 30 30 31 32 33 33 34 35 36 37 36 35 34 32 32 32 32 32 33 34 35 35 35 34 33 31 30 29 30 31 33 36 38 39 40 40 38 37 38 40 42 43 40 37 34 32 31 32 33 35 36 36 36 34 33 32 31 32 33 32 32 32 32 31 31 31 32 33 33 33 33 33 33 33 33 32 32 32 32 31 32 33 33 33 32 32 32 34 34 34 34 34 33 33 33 33 33 32 31 31 31 31 30 30 31 31 30 29 28 28 28 28 29 29 30 30 30 30 29 29 28 28 28 29 30 31 32 33 34 34 32 30 27 21 17 15 14 15 20 24 26 26 26 27 29 31 30 29 29 29 28 28 30 32 32 31 30 30 30 31 30 
48 49 49 50 50 50 50 50 50 49 48 47 44 42 42 40 38 36 33 30 28 26 26 26 26 29 33 37 40 41 34 33 32 32 33 34 34 34 35 35 35 35 34 34 33 32 32 32 32 32 32 33 35 35 36 35 34 33 32 30 30 30 32 34 36 37 38 38 37 36 37 39 41 41 38 35 33 31 30 31 33 34 35 36 36 35 34 33 33 34 35 35 34 34 33 31 31 31 31 32 32 32 32 32 32 32 32 31 31 32 32 32 33 34 34 33 33 33 33 34 35 35 34 34 34 33 34 33 31 30 30 31 32 30 30 31 31 32 31 30 29 29 29 29 29 30 30 30 30 30 30 30 29 29 29 29 30 31 31 32 33 33 32 31 28 22 17 14 13 15 20 25 25 25 25 27 30 31 31 30 30 29 28 28 29 32 33 31 30 30 31 31 30 
48 49 49 50 50 50 51 51 50 49 49 47 44 42 41 39 37 34 32 29 27 26 27 27 28 31 33 35 38 38 35 34 34 34 35 35 35 36 38 38 36 34 33 33 33 32 32 32 32 32 32 33 34 36 37 37 35 34 32 30 29 29 30 32 34 35 36 36 36 36 35 36 38 38 35 33 31 30 30 31 32 33 35 36 36 35 35 34 34 35 36 37 36 35 33 32 31 30 31 31 32 32 32 31 31 31 31 31 31 32 32 33 33 34 35 34 34 34 34 34 34 34 34 34 33 34 34 33 31 30 30 31 32 30 31 31 32 32 31 30 30 30 29 29 29 29 30 30 30 30 30 30 29 29 29 29 30 31 31 32 33 32 31 30 26 20 16 15 13 16 21 25 25 24 25 27 29 30 30 30 29 29 28 28 28 31 32 31 30 30 31 31 30 
48 49 50 51 51 51 52 52 51 50 49 48 44 41 40 37 35 33 31 29 27 26 27 27 29 31 32 34 35 36 35 35 35 35 35 35 35 37 41 41 38 35 33 33 32 32 32 31 31 31 31 32 34 37 39 38 35 33 32 29 28 28 28 30 32 34 35 35 36 35 33 33 34 34 33 32 31 30 30 30 31 33 34 35 36 36 35 35 34 35 36 36 36 35 33 32 31 30 31 31 32 32 32 31 30 30 31 31 32 33 33 34 34 35 35 35 34 34 33 33 33 33 33 33 33 33 33 33 33 32 32 32 31 30 31 32 33 33 32 31 31 30 29 29 29 29 29 29 30 30 30 30 29 29 29 30 30 31 32 32 32 31 31 29 25 20 17 17 15 16 21 24 26 25 25 27 29 29 29 28 28 28 28 29 30 31 31 31 30 30 31 31 30 
49 50 51 52 53 53 53 53 52 51 50 48 44 41 38 35 34 32 31 29 28 27 27 28 29 31 32 33 33 34 35 35 35 35 35 36 36 38 42 42 40 36 33 32 32 32 32 32 31 31 31 32 36 38 39 38 35 33 31 28 27 27 28 29 31 33 34 35 35 34 32 31 32 33 34 33 32 31 30 30 31 32 34 35 35 35 35 34 34 33 34 35 35 34 33 32 31 30 31 31 32 32 32 31 30 30 31 31 32 33 33 34 35 35 35 34 34 33 33 32 32 32 32 32 32 32 32 33 33 33 32 31 30 30 30 31 32 33 32 32 31 31 30 29 28 28 28 28 29 29 29 29 29 29 29 30 30 31 32 33 33 30 29 28 25 21 19 19 17 15 17 22 25 26 26 27 28 28 28 28 28 29 29 30 31 31 31 31 31 30 30 31 32 
49 51 52 53 54 54 54 53 53 51 49 47 44 40 37 34 33 32 31 30 29 29 29 29 30 30 31 32 32 33 34 35 35 35 35 36 36 38 41 41 39 37 34 31 31 32 32 32 32 31 31 33 36 38 39 37 35 33 31 28 28 27 28 29 31 33 34 35 34 34 33 32 33 34 35 35 33 32 30 31 31 32 34 35 35 35 34 33 32 31 32 33 33 33 33 32 31 31 31 32 32 32 32 31 31 30 31 31 32 32 33 33 34 35 34 34 33 33 32 31 31 31 31 31 31 31 31 32 32 32 31 30 29 29 29 30 31 32 32 32 31 31 30 29 28 27 27 27 28 28 29 29 29 29 30 30 30 31 32 34 33 29 27 26 24 20 18 19 17 15 15 19 24 26 26 27 28 28 28 28 28 29 30 31 31 30 30 31 31 30 30 31 32 
49 51 52 53 54 54 54 53 52 50 49 46 44 40 37 34 33 32 31 31 30 30 30 31 31 31 31 31 32 33 35 35 35 36 36 36 37 38 39 38 38 38 36 32 31 32 33 33 33 32 32 33 36 38 38 36 35 33 32 29 29 29 29 30 32 33 34 34 34 35 36 34 35 36 36 36 34 32 31 32 33 33 34 35 35 35 34 32 31 30 30 31 31 32 32 32 31 31 31 32 32 32 32 31 30 30 31 31 32 32 32 32 33 33 33 33 32 32 32 31 32 31 31 31 31 31 31 32 32 31 29 28 28 28 28 28 29 30 31 31 30 30 29 29 28 27 27 27 27 28 28 29 29 29 29 30 30 31 33 34 33 29 26 25 22 18 16 18 18 17 16 18 22 27 28 27 28 28 28 28 28 29 29 30 31 30 29 30 31 31 31 32 32 
49 50 52 53 54 54 54 53 51 49 47 46 44 41 37 35 34 33 33 32 32 32 32 32 32 31 31 31 31 33 34 35 35 36 35 35 36 38 36 35 37 39 38 34 31 32 33 34 34 33 33 34 36 36 37 37 36 35 34 31 30 30 31 32 33 33 33 33 34 36 37 36 36 37 37 38 36 33 33 34 34 35 35 36 36 35 34 33 31 29 29 30 31 32 32 32 32 32 32 32 32 32 32 31 30 30 31 31 31 31 31 32 32 32 32 32 32 32 32 32 32 32 32 32 32 31 32 32 31 30 28 28 28 27 27 27 27 29 30 30 30 29 29 29 28 28 27 27 27 28 28 28 29 29 29 29 30 31 32 34 33 29 26 24 20 17 16 17 19 19 17 18 22 27 29 28 27 28 28 27 27 28 28 29 30 30 28 29 31 32 32 32 31 
49 50 52 53 54 54 53 52 50 48 47 45 44 42 39 36 35 35 35 34 34 34 34 33 33 32 31 31 32 33 34 35 35 35 34 34 35 36 35 33 36 38 38 34 32 32 33 34 34 34 34 34 35 36 37 38 38 37 36 33 32 32 32 33 33 33 33 32 32 35 36 35 35 37 38 39 38 35 34 34 35 35 36 36 36 36 35 33 32 30 30 31 31 32 33 33 33 33 33 33 33 33 32 32 31 31 31 31 32 31 31 32 32 32 32 32 32 32 32 33 33 33 33 33 32 32 32 32 31 29 29 28 28 27 27 26 26 27 28 29 29 29 30 30 30 29 29 28 27 27 28 28 29 29 29 29 30 31 32 33 33 30 26 22 19 17 17 17 18 18 17 18 21 25 29 29 27 27 26 26 26 26 26 27 28 29 28 29 30 32 32 31 29 
48 50 51 52 53 53 52 50 49 47 46 44 43 43 41 37 37 37 36 36 36 35 35 34 33 32 32 32 32 33 34 34 34 34 33 33 33 34 34 32 33 36 36 34 33 32 32 33 33 34 34 35 36 37 39 40 40 39 38 35 34 34 34 34 34 33 32 30 31 33 34 34 34 36 39 40 39 37 35 35 35 35 35 36 37 37 36 35 34 32 31 32 33 33 33 33 32 32 33 34 34 34 33 32 31 31 32 32 33 32 32 33 32 32 31 31 31 32 32 33 34 34 34 34 33 33 34 33 32 30 29 29 28 27 27 26 26 27 28 29 29 29 30 31 31 31 30 29 27 27 28 28 29 29 29 30 30 31 32 33 33 32 29 22 20 19 18 17 17 17 16 17 20 24 29 30 28 26 25 24 25 25 25 26 26 27 28 29 30 31 31 30 28 
48 50 51 52 52 52 51 49 47 46 44 43 43 43 42 39 38 38 37 36 36 36 35 34 33 33 32 32 33 33 33 33 33 33 32 32 32 33 33 32 31 33 34 33 33 31 31 32 33 33 34 36 37 38 40 41 41 40 39 36 35 35 34 34 34 33 31 30 31 32 32 32 33 35 39 40 40 38 36 36 36 35 34 35 37 37 38 37 36 34 34 34 34 34 33 32 31 32 34 35 35 36 36 35 32 32 33 34 34 34 34 34 33 32 32 31 32 32 33 34 34 34 34 34 34 34 35 34 33 32 31 30 29 28 27 27 27 28 29 29 29 30 31 32 32 32 31 29 27 27 28 28 29 29 30 30 30 31 31 32 33 33 31 23 22 22 20 18 17 17 16 17 19 23 29 30 27 26 25 24 24 23 24 25 25 25 26 28 29 29 29 29 27 
48 49 51 51 51 51 49 48 46 44 43 42 42 42 43 40 39 38 37 37 36 35 34 34 33 33 32 32 33 33 33 33 33 32 31 31 31 32 33 32 31 32 34 34 33 31 31 32 32 33 34 36 37 39 40 41 41 41 40 37 36 35 35 34 34 32 31 30 30 31 31 31 32 34 38 39 39 38 37 36 36 34 35 36 36 37 38 38 38 37 37 37 37 36 34 32 31 32 34 36 37 38 38 37 35 34 34 34 35 35 35 35 34 33 32 32 32 33 33 34 34 34 34 35 35 35 36 35 34 34 33 31 30 28 28 28 28 29 30 30 30 31 32 32 32 32 31 30 27 27 28 28 29 29 30 30 30 31 31 31 32 33 33 26 25 25 22 19 18 17 16 16 18 22 28 29 27 26 26 26 25 24 24 24 24 24 25 27 28 28 28 28 28 
49 49 50 51 50 49 48 46 44 42 41 41 41 42 43 42 40 38 37 36 35 34 34 33 33 33 33 33 33 33 33 33 33 32 31 31 31 32 34 33 31 32 33 34 33 32 32 32 32 33 34 35 37 39 40 40 40 40 39 37 36 35 35 34 33 32 30 30 31 32 32 33 33 34 38 39 38 38 36 35 33 32 34 36 35 35 37 38 38 40 40 40 39 37 35 33 32 32 34 35 36 37 38 38 37 36 35 35 35 35 36 36 35 34 33 32 32 33 33 34 34 35 35 36 36 36 37 36 35 34 33 32 30 28 28 28 29 30 30 30 30 31 31 32 32 31 30 29 28 28 28 28 29 30 30 30 31 31 31 31 31 32 32 29 28 28 25 21 19 18 16 16 18 22 27 28 26 26 27 27 27 26 26 25 25 26 26 27 28 28 28 28 28 
49 49 49 50 49 48 47 45 43 41 41 41 41 42 43 44 42 40 38 36 35 34 33 33 33 33 33 33 33 33 32 32 32 31 31 31 32 33 34 34 33 32 33 33 33 34 33 33 33 33 34 35 37 38 39 39 39 38 38 36 36 35 34 34 33 32 32 33 33 33 34 35 36 36 38 38 38 37 35 31 28 28 29 31 32 34 36 37 39 41 41 40 39 36 34 33 31 31 32 33 35 36 37 37 37 37 36 35 35 35 36 36 35 35 34 33 33 34 35 35 35 35 36 36 36 37 37 36 35 34 33 31 30 28 28 28 29 31 31 30 30 30 30 31 31 30 30 29 28 29 29 29 30 30 30 30 31 31 31 31 31 31 31 30 31 30 27 23 20 19 18 17 20 24 28 28 27 26 28 28 28 28 28 27 27 27 28 28 28 29 29 29 29 
48 49 49 49 48 48 47 45 43 42 41 41 41 42 44 46 45 42 40 37 35 34 33 33 34 34 34 34 35 34 33 32 31 31 31 31 33 35 36 35 34 33 33 34 34 34 34 34 34 34 34 35 36 37 37 37 37 36 36 35 35 34 34 33 32 32 34 35 36 36 36 37 38 40 39 37 37 36 34 29 26 26 26 27 29 33 37 37 38 40 40 39 37 35 34 33 31 31 32 33 34 35 36 36 37 37 37 35 34 34 35 35 35 35 35 35 35 35 36 36 36 37 37 37 37 37 36 34 33 33 32 30 29 28 28 29 30 31 31 30 30 30 30 30 30 30 30 30 30 30 30 30 31 31 31 31 31 31 31 31 31 31 31 30 32 32 28 24 23 23 22 21 23 27 28 28 27 26 28 28 29 29 29 28 28 29 29 29 29 29 29 29 29 
48 49 49 48 48 48 47 46 44 43 42 42 43 44 45 47 47 46 42 39 36 35 34 34 34 35 35 36 36 36 34 33 32 32 32 33 34 36 36 35 34 34 34 34 34 34 35 34 34 34 34 35 36 37 37 37 37 36 36 35 35 34 34 33 32 32 34 35 36 36 36 37 38 40 39 37 37 36 34 29 26 26 26 27 29 33 37 37 38 40 40 39 37 35 34 33 31 31 32 33 34 35 36 36 37 37 37 35 34 34 35 35 35 35 35 35 35 35 36 36 36 37 37 37 37 37 36 34 33 33 32 30 29 28 28 29 30 31 31 30 30 30 30 30 30 30 30 30 30 30 30 30 31 31 31 31 31 31 31 31 31 31 31 30 32 32 28 24 23 23 22 21 23 27 28 28 27 26 28 28 29 29 29 28 28 29 29 29 29 29 29 29 30 
48 49 49 48 48 48 47 46 44 43 42 42 43 44 45 47 47 46 42 39 36 35 34 34 34 35 35 36 36 36 34 33 32 32 32 33 34 36 36 35 34 34 34 34 34 34 35 34 34 34 34 35 35 35 35 35 35 34 34 34 33 33 33 33 32 33 35 37 36 37 38 38 40 41 40 38 36 35 33 31 29 29 29 30 32 36 39 38 37 38 39 39 38 36 35 34 33 33 33 34 34 35 36 37 37 36 36 35 34 33 33 34 35 35 36 36 37 37 39 39 39 38 38 37 37 37 35 33 32 31 30 29 29 28 28 29 29 30 30 30 29 30 30 30 30 30 30 31 32 32 32 32 32 32 32 32 31 32 32 32 32 32 31 31 32 32 27 23 23 25 24 23 25 27 29 29 28 27 28 29 29 29 29 29 29 29 29 30 30 30 30 30 31 
49 49 49 49 49 49 48 47 46 44 43 43 44 46 47 49 49 48 45 42 38 36 35 35 35 36 37 37 37 37 36 35 35 34 34 36 37 37 37 36 34 33 33 32 32 34 34 34 34 34 34 34 34 34 34 34 33 33 33 33 32 32 33 33 33 34 36 36 36 37 38 39 40 41 40 38 37 35 34 34 35 34 33 34 36 37 38 37 35 36 37 38 38 38 36 35 35 34 34 35 35 36 37 37 37 36 35 34 33 32 32 33 34 36 37 38 39 40 41 41 41 40 39 39 37 36 34 32 31 30 29 29 28 28 28 29 29 29 30 30 30 30 30 30 30 30 31 32 33 33 34 34 33 33 32 32 32 32 32 32 32 32 32 30 30 29 24 20 20 21 21 21 23 25 28 29 29 28 30 30 30 29 29 29 29 29 30 30 30 30 30 30 32 
50 50 50 51 51 51 50 49 48 46 45 45 46 48 49 51 50 49 46 44 41 38 36 36 36 37 37 38 38 39 38 38 38 38 38 39 39 38 37 35 33 32 31 30 30 32 33 33 34 34 33 34 34 34 34 33 33 33 32 32 32 32 33 33 34 35 36 36 36 36 38 39 39 40 38 36 36 35 35 36 36 35 35 35 36 36 36 35 33 35 36 38 38 38 38 37 36 36 36 36 37 37 38 38 37 36 34 33 32 32 32 33 34 36 38 40 41 42 44 44 43 42 41 39 37 36 34 32 31 30 29 28 28 29 29 29 29 29 30 31 31 30 30 31 31 31 31 32 34 34 35 35 35 34 33 32 32 32 32 32 32 32 32 29 28 26 22 19 18 18 17 18 20 23 27 30 30 29 31 30 30 30 30 29 29 29 30 30 30 30 30 30 32 
52 52 53 53 53 53 52 51 50 48 48 48 49 50 51 51 50 49 46 44 43 40 38 37 37 37 38 38 39 40 40 41 43 42 42 42 41 39 37 34 32 31 29 29 29 30 31 32 33 33 33 34 34 35 35 34 33 33 33 32 32 32 33 34 35 36 37 37 36 36 37 37 38 39 37 34 33 34 34 34 33 32 33 34 34 34 34 32 32 35 36 38 38 38 38 38 37 37 37 37 37 38 38 38 37 36 34 33 32 31 32 33 35 37 39 41 43 44 46 45 44 43 41 39 37 36 34 33 32 30 29 29 29 29 29 29 29 30 31 32 32 31 31 31 31 31 31 32 34 35 36 36 36 35 34 33 33 33 33 33 33 32 32 30 28 26 23 20 18 17 16 16 19 23 26 29 29 28 29 29 29 30 30 30 30 30 30 30 30 30 30 30 33 
53 54 55 55 54 54 53 52 51 50 49 49 50 51 51 51 50 48 45 44 42 41 41 40 39 39 40 40 41 41 43 45 46 45 44 43 41 38 36 34 32 30 29 28 28 30 31 32 32 33 33 34 35 36 36 35 34 34 33 32 32 32 33 34 36 36 37 37 37 37 37 37 38 39 37 35 34 34 34 33 33 32 32 32 33 33 33 32 33 35 36 37 38 38 38 37 37 37 37 37 37 38 38 38 37 36 35 33 31 31 32 34 36 38 40 43 45 46 48 46 44 42 40 38 37 36 35 34 32 31 30 29 29 29 30 30 30 30 31 32 33 33 32 32 32 31 31 31 33 35 36 36 36 36 35 35 34 34 34 34 33 33 33 31 29 27 24 21 19 18 17 17 18 21 24 27 28 27 28 28 28 29 29 30 31 31 31 31 31 31 31 31 33 
55 56 56 56 55 55 54 53 52 51 51 51 51 51 51 50 48 47 45 43 42 42 41 41 41 41 42 43 43 43 46 47 46 46 44 43 41 38 36 34 32 31 30 29 30 30 31 32 33 33 34 35 36 37 37 36 35 34 33 32 32 32 33 34 35 36 37 37 37 38 39 40 40 40 39 38 37 36 35 34 34 33 33 33 33 33 33 33 34 35 36 37 38 38 38 37 37 36 36 36 36 37 37 37 37 36 35 33 31 30 31 33 35 38 41 43 45 46 46 45 42 40 38 37 36 36 35 34 33 32 31 30 30 30 30 30 30 30 31 31 32 33 34 33 32 32 31 31 33 34 36 37 37 37 37 36 36 36 35 35 35 34 34 32 30 28 25 21 19 19 18 16 15 17 22 27 28 27 28 28 28 28 28 29 29 29 30 31 32 32 32 32 33 
56 57 57 56 55 55 54 53 53 53 52 52 51 50 50 48 47 46 45 44 43 42 41 41 41 41 42 43 44 45 47 47 46 45 44 42 40 38 37 35 34 32 31 31 31 31 32 32 33 33 34 35 36 37 37 37 36 35 33 31 31 31 32 33 35 36 36 37 38 39 40 41 42 43 42 41 40 39 37 36 35 34 34 34 34 35 35 35 35 36 36 37 37 37 37 37 36 35 35 35 35 36 36 36 37 36 34 33 31 30 30 31 33 36 39 41 43 44 43 42 40 38 37 36 35 35 35 34 33 33 32 31 30 29 30 30 30 30 31 31 32 33 34 34 33 32 32 32 33 34 35 37 37 38 38 37 37 36 36 36 36 36 35 32 29 28 25 22 20 20 18 15 13 15 21 27 28 27 28 28 28 28 28 28 28 28 29 30 31 32 33 33 33 
57 57 57 56 55 54 54 54 54 54 53 53 51 50 49 47 46 46 45 44 43 42 41 40 40 40 41 42 43 44 46 46 45 44 43 41 40 39 38 37 36 35 34 33 32 32 32 32 33 34 35 35 36 37 37 36 36 35 33 31 31 31 31 33 34 35 36 37 38 39 41 43 44 44 44 44 43 41 39 37 36 35 34 34 35 35 36 36 36 36 36 37 37 37 37 37 36 35 34 34 34 35 35 36 36 35 34 33 31 30 29 30 31 33 35 38 40 41 40 39 37 36 36 35 35 35 35 34 33 33 32 31 30 29 29 29 30 30 30 30 31 32 34 34 33 32 32 32 32 33 34 36 37 37 37 37 37 37 37 37 37 36 36 33 30 28 25 22 21 19 16 14 13 14 20 26 29 29 28 28 28 28 28 28 28 28 28 29 30 31 32 32 33 
58 57 57 56 55 55 54 54 55 55 55 54 52 50 48 46 46 46 45 44 43 42 40 40 39 39 39 40 42 43 45 45 44 43 41 40 40 40 39 39 38 37 35 34 33 32 32 33 34 34 35 35 36 36 36 36 36 35 34 32 31 31 31 32 34 35 35 36 37 39 41 43 44 45 45 45 44 42 40 38 36 35 35 35 35 36 36 37 37 37 37 37 38 38 38 37 35 34 34 33 33 34 34 35 35 35 34 33 31 29 28 29 29 31 33 34 36 37 38 37 36 35 35 35 35 35 34 33 32 31 31 31 30 29 29 29 30 30 30 30 30 31 32 33 33 33 32 32 32 33 34 35 36 36 36 36 36 36 36 36 36 36 36 34 30 28 25 23 20 18 15 15 15 15 20 26 29 30 28 29 29 28 28 28 28 28 28 29 29 30 31 31 32 
59 58 57 57 56 56 56 56 56 57 57 56 54 51 49 46 46 46 45 44 43 41 39 38 38 38 38 39 40 41 43 43 42 41 40 39 39 40 40 40 39 38 36 35 33 33 33 34 35 36 36 36 36 36 35 35 35 35 34 33 32 32 32 33 34 35 35 36 37 38 40 42 44 45 45 45 44 42 40 38 36 35 35 35 36 37 37 37 37 37 37 37 38 38 38 37 35 34 33 33 33 33 33 34 35 35 34 33 31 29 28 28 28 29 30 32 34 35 36 36 36 35 35 34 33 33 33 31 30 30 30 30 30 29 29 29 30 30 29 29 29 30 30 31 33 33 32 32 33 33 33 34 35 35 35 35 34 34 34 35 35 35 36 35 31 27 26 24 21 18 17 18 20 19 21 25 29 30 29 29 29 29 28 28 28 28 28 29 29 30 30 30 31 
61 60 59 58 57 57 57 57 58 59 58 57 56 53 50 47 46 46 45 44 42 40 39 37 37 36 36 37 38 39 40 40 40 40 39 39 39 40 41 41 40 39 37 36 34 35 35 36 37 38 38 38 37 36 35 35 35 34 34 33 32 32 32 33 34 35 35 36 37 38 40 42 43 44 46 45 44 43 40 38 36 35 35 35 36 37 38 38 38 37 37 37 38 38 38 37 35 34 33 33 32 32 33 34 35 36 35 34 32 30 28 28 28 28 29 31 32 34 36 35 35 35 33 33 32 31 31 31 30 29 29 29 30 29 29 30 30 30 29 29 29 29 29 30 32 33 33 33 33 33 33 34 34 34 34 33 33 33 33 34 34 35 35 35 32 29 27 25 23 21 21 22 23 22 22 25 28 30 29 29 29 29 29 29 29 29 29 29 29 29 30 30 30 
63 61 60 59 58 58 58 59 60 61 61 60 58 55 52 48 47 46 45 44 42 40 38 37 36 35 35 35 36 37 38 38 39 39 39 39 40 41 42 42 41 40 38 37 36 37 38 39 40 40 40 39 38 37 36 35 34 34 33 33 33 32 33 33 34 35 35 36 37 38 40 41 43 44 46 46 45 43 41 39 36 35 35 36 37 37 38 38 38 37 37 37 37 37 37 36 35 34 33 33 32 32 33 33 35 36 36 34 33 31 29 28 28 28 29 30 32 34 36 34 34 33 32 32 31 31 31 31 30 29 28 28 30 29 29 30 30 29 29 29 28 28 28 29 31 33 33 33 34 34 34 34 34 34 34 33 32 32 32 33 33 34 35 34 33 31 28 25 24 23 23 23 24 23 23 25 28 30 29 29 30 30 30 29 29 29 29 29 29 29 29 29 30 
64 62 61 60 59 59 59 60 61 62 62 61 60 57 54 48 47 46 45 44 43 41 38 37 35 34 34 34 35 36 37 38 38 39 39 40 41 42 43 43 42 41 40 39 39 40 41 42 42 42 42 40 39 37 36 34 33 32 32 32 32 32 33 34 34 35 36 37 38 39 40 41 42 43 45 45 45 43 41 39 37 35 36 36 37 38 38 38 38 37 36 36 36 36 36 35 34 33 33 32 32 32 32 33 35 36 36 35 33 32 30 29 29 29 29 31 33 35 35 34 33 33 32 32 31 31 31 30 30 29 28 29 31 30 30 30 30 29 29 29 28 28 28 29 30 32 33 34 34 34 34 34 34 34 33 33 32 32 32 33 33 34 34 34 34 32 28 25 23 23 23 23 23 23 24 26 28 29 30 30 29 30 30 30 30 30 30 29 29 29 29 29 29 
63 61 60 59 59 59 59 60 61 63 63 63 61 58 54 48 46 45 45 44 43 41 39 37 36 35 34 34 35 35 37 38 38 39 40 41 42 43 44 44 44 43 42 41 42 42 43 44 44 44 43 41 39 37 35 34 32 31 31 33 32 32 33 34 35 36 37 38 39 39 39 40 41 42 44 45 44 43 41 38 37 35 35 36 37 38 38 38 38 37 36 36 36 35 35 34 33 33 33 32 31 31 31 32 34 35 36 35 34 33 31 30 30 30 30 31 34 35 34 34 33 33 33 32 32 31 31 30 30 30 29 29 30 31 30 30 30 29 29 29 28 28 29 29 30 32 33 34 35 34 34 34 34 34 33 33 32 32 32 33 34 35 35 35 35 33 29 25 23 24 24 23 23 23 24 26 28 29 30 30 29 29 30 30 30 30 30 30 29 29 29 29 29 
61 60 59 58 58 58 59 60 62 63 64 63 61 58 54 47 45 44 44 43 43 41 40 38 37 36 35 35 35 36 37 38 38 39 40 41 42 44 45 45 45 44 44 43 43 44 44 44 44 44 43 41 39 37 35 34 32 31 30 32 31 31 33 34 36 37 38 39 39 39 39 39 40 41 43 44 43 42 40 38 36 35 35 36 37 38 38 38 38 37 37 37 36 35 34 34 33 32 32 31 30 30 30 31 33 35 36 36 35 34 33 32 31 31 31 32 35 36 34 33 33 33 33 33 32 32 32 31 30 30 29 29 30 31 30 30 29 29 29 29 29 29 29 29 30 31 33 34 35 34 34 34 33 33 33 33 33 33 33 34 34 35 35 36 36 34 31 26 24 24 24 24 24 24 24 25 28 29 30 30 29 29 30 30 30 30 30 30 29 29 29 29 29 
58 57 56 56 56 57 59 60 62 63 64 63 60 57 53 46 44 43 43 43 43 42 41 40 38 37 36 36 36 37 38 38 39 39 40 41 42 44 45 46 46 45 44 44 43 43 44 44 43 43 41 40 38 36 35 34 32 31 30 30 30 31 33 35 37 38 39 39 39 39 38 38 38 39 42 43 42 41 39 38 36 35 36 36 37 38 39 39 39 39 38 38 37 36 35 34 33 32 31 29 28 28 28 29 33 35 36 36 36 35 34 33 32 32 32 33 35 36 34 33 33 33 33 33 33 32 32 31 31 30 30 29 30 31 30 30 29 29 29 29 29 29 29 29 30 31 32 33 33 34 34 33 33 32 32 32 33 33 33 34 34 35 35 38 37 35 32 30 27 26 25 24 24 24 23 24 27 29 30 30 29 28 29 29 29 30 30 29 29 29 29 29 29 
55 55 54 55 55 57 59 60 62 63 63 62 59 56 51 45 43 43 43 43 43 43 42 41 40 38 37 37 37 37 39 39 39 39 40 41 42 43 45 46 46 45 44 43 42 42 42 42 41 40 39 38 37 35 35 34 33 32 31 29 29 31 33 35 37 38 39 39 39 38 38 37 38 38 40 41 41 40 38 37 36 35 36 37 38 39 39 40 40 40 40 39 38 37 36 34 33 32 30 29 28 27 28 29 33 35 37 38 37 36 35 34 33 33 33 34 35 35 33 33 33 33 33 33 33 33 32 31 31 31 31 29 30 31 30 30 30 30 30 30 30 29 30 30 30 30 31 31 32 32 32 33 33 32 32 32 33 33 33 34 35 35 37 38 37 35 33 32 30 29 27 26 25 24 24 24 25 28 30 30 29 28 28 29 29 30 30 29 29 29 29 29 29 
53 53 53 54 55 57 59 61 62 63 63 61 58 54 50 44 42 42 43 43 44 44 43 42 41 39 38 38 38 38 39 40 39 39 39 40 41 42 44 45 45 44 43 42 41 40 40 40 39 38 37 37 36 35 35 35 35 34 33 30 30 31 34 36 38 38 38 38 38 38 38 37 38 38 40 40 39 38 37 36 35 35 36 37 38 39 40 41 41 41 41 40 39 37 36 34 33 32 30 29 28 27 28 29 33 35 37 38 37 36 35 34 33 33 33 34 35 35 33 33 33 33 33 33 33 33 32 31 31 31 31 29 30 31 30 30 30 30 30 30 30 29 30 30 30 30 31 31 32 32 32 33 33 32 32 32 33 33 33 34 35 35 37 38 37 35 33 32 30 29 27 26 25 24 24 24 25 28 30 30 29 28 28 29 29 30 30 29 29 29 29 29 29 
53 53 53 54 55 57 59 61 62 63 63 61 58 54 50 44 42 42 43 43 44 44 43 42 41 39 38 38 38 38 39 40 39 39 39 40 41 42 44 45 45 44 43 42 41 40 40 40 39 38 37 37 36 35 35 35 35 34 33 30 30 31 34 36 38 38 38 38 38 38 38 37 38 38 40 40 39 38 37 36 35 35 36 37 38 39 40 41 41 41 41 40 39 37 36 35 34 32 31 30 28 28 29 30 35 37 39 40 39 38 37 35 34 34 34 34 35 35 33 33 33 33 33 33 33 33 32 32 31 32 32 29 29 30 30 30 30 30 31 31 30 30 30 30 30 30 30 31 31 30 31 31 32 33 33 33 33 34 34 34 35 36 37 38 36 35 33 32 31 31 30 28 26 24 24 23 24 26 29 30 30 29 28 29 30 30 30 30 30 29 29 29 29 
52 52 52 53 55 57 59 61 62 63 62 60 57 53 49 43 42 42 43 43 44 44 43 42 41 40 40 39 39 40 40 40 40 39 39 39 39 40 42 43 43 43 42 41 39 38 37 37 37 36 36 36 36 36 36 37 37 36 35 32 31 33 37 40 40 40 38 38 38 38 38 38 38 38 39 39 38 37 36 35 35 35 36 38 39 40 41 42 42 42 42 41 39 38 37 36 35 33 32 31 31 31 31 32 37 40 41 42 41 40 38 37 36 35 35 35 36 36 33 33 33 33 33 33 33 33 32 32 32 33 32 30 30 31 30 31 32 32 31 31 31 31 31 31 30 30 30 30 30 30 30 30 31 32 34 34 34 34 34 35 35 36 36 36 36 35 33 31 31 31 31 30 26 25 24 23 24 26 29 30 30 29 29 29 30 31 31 31 31 30 29 29 29 
51 51 51 52 54 56 58 60 61 62 61 59 56 52 48 42 42 42 42 43 43 43 43 43 42 41 41 40 40 40 41 41 40 39 38 38 38 38 40 41 41 41 40 39 37 36 35 35 35 35 35 36 37 37 38 38 38 38 37 35 34 36 41 43 44 42 40 39 39 39 39 38 38 38 38 38 37 36 35 35 35 36 37 38 39 40 41 42 42 42 41 41 39 38 37 36 36 35 34 34 34 34 34 35 40 42 43 43 42 41 39 37 36 36 36 36 37 37 34 33 34 34 33 33 33 33 32 32 32 33 32 31 31 31 31 33 35 34 33 32 32 32 32 32 31 30 30 30 30 30 30 31 31 32 33 34 35 36 36 36 35 35 35 35 35 34 33 31 30 31 31 30 28 26 25 25 26 28 30 30 31 31 30 30 31 32 32 32 31 31 30 29 29 
51 50 50 52 54 55 57 59 60 60 60 57 54 50 46 42 41 42 42 43 43 43 43 42 42 41 41 41 41 41 41 41 40 39 38 37 37 37 38 38 39 39 38 37 34 34 33 33 34 35 35 36 38 39 40 40 40 40 39 38 38 40 43 46 47 45 42 40 40 40 40 40 40 39 37 37 36 35 34 34 35 36 37 39 40 40 41 41 42 41 40 40 39 38 37 37 37 37 37 37 37 37 37 38 41 43 44 44 43 41 39 38 37 37 37 37 38 38 36 34 35 35 35 34 33 33 32 32 32 32 33 33 32 31 33 35 37 37 35 33 33 33 33 33 32 31 31 31 30 31 31 31 32 32 33 33 35 37 37 37 35 34 34 34 34 33 32 31 29 29 30 30 30 29 28 28 29 30 29 30 31 32 32 31 32 33 33 33 32 31 31 30 30 
51 50 50 51 52 54 56 57 58 58 57 55 52 48 45 41 41 42 42 43 44 43 43 42 42 42 42 42 42 42 42 41 40 39 37 36 36 36 36 37 37 37 36 34 32 32 32 32 33 35 36 37 39 40 41 41 41 41 40 41 41 41 43 47 48 46 43 42 42 42 42 42 41 40 38 36 36 35 35 35 36 37 38 39 40 40 41 41 41 40 39 38 37 37 37 37 37 37 38 38 38 38 39 39 42 43 43 43 42 40 39 38 37 37 37 38 38 39 38 36 35 35 36 36 35 34 33 33 33 33 34 33 32 32 33 36 38 38 36 34 34 35 35 34 33 33 32 32 32 32 32 32 33 33 33 33 34 36 38 37 35 34 34 33 33 33 32 31 29 29 30 31 31 31 30 30 31 30 29 30 31 33 33 32 33 34 34 34 33 32 32 31 31 
51 50 50 50 51 53 54 55 56 56 55 53 50 47 44 41 42 42 43 44 44 44 43 43 42 42 43 43 43 43 42 41 40 38 37 35 35 35 35 35 35 35 34 33 31 31 31 32 34 35 37 39 40 41 42 42 42 41 41 43 43 42 44 46 48 47 45 44 44 44 44 44 42 41 39 37 37 36 35 36 36 38 38 39 40 41 41 41 40 39 38 37 36 36 36 36 37 37 38 38 39 39 39 39 41 42 42 41 40 39 38 38 37 37 37 37 37 38 39 38 37 36 35 35 35 35 35 35 35 35 34 33 31 32 33 36 38 38 36 35 35 36 36 35 34 34 33 32 32 33 33 33 33 33 33 34 35 36 36 36 36 36 35 34 33 33 32 31 30 30 30 31 31 31 31 30 31 30 29 30 31 33 34 34 34 34 35 35 34 34 33 33 32 
52 51 50 50 50 51 52 53 54 54 53 51 49 46 44 42 42 43 44 45 46 46 45 44 43 43 44 44 44 44 42 41 39 37 36 34 34 34 34 35 35 34 33 32 31 31 32 33 35 37 39 40 41 42 42 42 41 40 41 43 43 45 46 47 48 49 48 47 47 47 47 46 44 43 40 39 38 37 36 36 37 38 39 40 41 41 41 41 40 38 37 36 35 35 35 35 36 37 38 38 39 39 39 39 40 41 40 40 39 39 38 37 37 36 36 36 36 37 38 39 38 37 36 36 36 37 38 38 38 37 35 33 31 31 32 34 37 37 36 36 36 37 37 36 35 34 33 32 32 33 33 34 34 34 34 35 36 36 34 35 36 36 35 35 35 34 33 32 31 30 30 31 31 32 32 31 31 30 30 31 32 33 34 34 34 35 36 36 35 35 34 34 32 
54 52 51 51 50 50 51 52 52 52 51 50 48 45 43 42 42 43 45 46 47 47 46 46 45 45 45 45 45 45 43 42 40 37 36 34 34 34 34 35 35 35 34 33 32 32 34 36 38 39 41 41 42 42 42 41 41 41 42 44 45 46 48 49 50 51 51 49 49 49 48 47 46 44 42 40 39 38 37 37 37 38 39 40 40 41 41 41 40 37 36 35 34 34 34 35 36 36 37 38 39 39 40 40 40 40 40 39 38 38 38 37 36 35 34 34 35 35 37 38 38 38 38 38 39 39 40 40 39 38 35 33 32 31 32 33 34 36 36 37 38 38 38 37 36 34 33 32 32 33 34 34 34 35 36 38 38 37 34 34 36 35 33 35 37 37 35 34 32 30 30 31 31 32 33 32 31 30 30 31 32 33 34 34 34 35 36 36 36 36 35 34 32 
56 55 53 52 51 51 51 51 51 51 51 49 48 46 44 42 43 44 46 47 48 48 48 47 46 46 46 46 46 45 44 42 40 38 36 35 35 35 35 35 36 35 35 34 34 35 37 39 41 42 43 43 43 43 42 41 40 40 42 46 46 47 48 50 52 53 52 51 50 49 49 47 46 45 43 42 41 39 38 37 37 37 38 39 39 40 40 40 39 37 36 35 35 34 34 35 36 37 37 38 39 40 40 41 41 40 39 38 38 37 37 36 35 34 33 33 34 34 36 36 36 37 37 38 39 40 41 41 40 39 37 35 33 31 32 33 34 36 37 38 39 39 39 38 37 35 33 32 32 33 34 35 36 37 39 40 39 37 35 35 35 34 32 34 37 39 38 36 33 31 31 32 32 32 32 32 31 31 31 31 32 33 34 34 34 34 36 36 36 36 35 34 31 
58 57 56 55 54 53 52 52 52 52 51 49 48 46 44 43 43 45 46 47 48 49 48 48 47 47 47 46 46 45 44 42 41 40 38 37 37 37 37 37 37 37 37 37 37 39 40 42 44 45 45 45 45 44 43 41 39 39 40 47 48 48 49 52 52 52 51 50 49 48 48 47 46 45 43 42 41 40 39 37 37 37 37 37 38 38 39 39 38 37 36 36 35 35 35 36 36 37 38 38 39 40 40 41 41 40 39 37 36 36 36 35 34 33 33 33 34 34 35 35 35 36 37 38 39 40 41 41 41 40 37 35 33 31 32 33 35 37 38 38 39 40 39 39 38 36 34 33 33 34 35 36 38 40 41 41 38 36 35 36 36 34 33 34 37 40 40 37 35 33 32 32 33 32 32 32 31 31 31 31 32 32 33 34 34 34 35 36 35 35 34 33 31 
59 59 59 58 57 55 54 54 54 53 52 51 49 47 45 43 44 45 46 47 48 48 48 48 48 47 47 46 45 44 44 43 43 42 41 40 40 40 40 40 40 40 40 40 41 43 44 46 47 48 48 47 47 45 43 40 39 38 40 46 48 48 49 50 50 50 50 49 48 47 46 45 44 43 42 42 41 40 38 37 36 36 36 36 36 37 37 37 37 37 37 37 37 37 37 37 37 38 38 38 39 39 40 41 40 39 38 36 36 35 35 34 34 33 33 33 34 34 35 35 35 36 37 38 39 41 41 42 41 40 38 35 33 32 33 34 36 37 38 38 39 39 39 39 38 37 35 34 34 35 35 37 39 41 42 41 38 36 36 36 37 36 35 35 36 39 40 38 36 34 32 32 33 33 33 32 31 31 31 31 31 32 33 34 34 33 34 34 34 34 33 32 30 
59 60 60 60 59 58 57 56 56 55 53 51 50 48 47 44 44 45 46 47 47 47 48 48 47 47 47 46 45 43 43 44 44 44 44 43 43 43 43 43 42 42 42 43 45 46 48 49 49 48 47 47 47 45 43 41 40 40 40 45 47 47 47 46 47 47 47 46 45 44 44 43 42 41 41 41 40 39 38 37 36 36 36 35 35 35 36 36 36 37 37 37 38 38 39 39 39 39 39 38 38 39 39 40 39 38 37 36 35 35 35 34 34 34 34 34 34 35 36 36 36 37 38 39 40 41 42 42 41 40 38 36 34 34 35 36 37 37 37 37 37 37 37 38 38 37 36 35 35 36 36 37 40 41 41 40 37 35 35 37 38 37 36 35 37 40 40 38 37 35 34 33 33 33 33 32 31 30 30 30 31 31 32 33 33 32 33 33 33 33 32 32 31 
58 59 60 60 60 59 59 58 57 55 52 50 48 47 47 46 45 45 45 46 46 46 47 47 47 47 46 45 44 42 43 44 46 47 47 46 46 46 46 45 44 44 44 45 48 48 48 48 47 47 46 46 46 46 45 43 42 42 42 44 46 46 44 44 44 44 44 43 43 42 41 40 39 39 39 39 39 38 37 37 36 36 36 36 35 35 35 35 35 36 36 37 38 39 41 41 41 41 40 39 38 38 38 38 37 36 36 35 35 35 35 35 34 34 34 34 35 36 37 37 38 38 39 39 41 42 42 42 41 40 38 36 35 36 37 37 37 37 36 35 35 35 35 36 37 36 36 36 36 37 37 38 39 40 40 40 36 33 33 36 38 39 39 37 39 40 39 38 37 36 35 33 33 33 33 32 31 30 30 30 30 31 32 33 32 31 32 32 32 32 32 31 31 
56 57 58 59 59 60 59 57 56 54 52 49 47 46 46 47 46 45 45 44 44 45 46 47 47 47 46 45 43 42 43 45 47 48 49 49 48 48 47 46 45 45 46 47 48 48 47 46 45 45 45 46 46 46 46 44 44 43 43 44 45 45 43 42 41 42 42 41 41 40 39 38 37 37 37 37 37 37 36 36 36 36 36 36 36 36 36 35 35 35 36 37 39 41 42 43 43 42 40 39 38 37 37 36 36 35 35 35 36 36 36 35 35 34 34 34 35 36 38 38 39 39 39 40 41 42 42 41 41 39 38 37 36 37 38 37 37 36 35 34 33 33 33 34 35 36 36 36 37 37 37 38 37 37 38 38 36 33 33 36 38 39 39 39 40 39 38 37 37 36 35 33 32 33 33 32 31 30 30 30 30 31 32 32 32 31 31 32 32 31 31 31 31 
54 54 55 56 58 59 58 56 55 54 53 50 48 47 46 47 46 45 44 43 43 44 45 47 48 48 47 45 43 42 44 46 48 50 50 50 50 49 48 48 47 47 47 47 47 47 46 45 44 43 44 45 46 46 46 45 44 45 44 43 45 45 43 41 40 40 40 40 39 38 38 37 36 36 36 36 36 36 35 35 36 37 37 37 38 37 37 36 35 35 36 37 39 41 43 44 44 43 41 39 38 37 36 35 35 35 35 36 36 37 36 36 35 34 34 34 35 36 38 39 40 40 40 40 41 41 41 40 40 38 37 37 37 37 38 37 37 35 34 33 32 32 32 33 34 35 35 36 37 37 37 37 36 35 35 36 35 33 34 36 38 39 39 39 39 37 36 36 36 35 34 32 31 31 32 32 31 30 30 30 30 31 31 32 32 31 31 32 32 31 31 31 31 
53 53 53 54 56 57 55 53 53 54 54 52 50 48 48 47 46 44 43 43 43 44 45 47 48 48 47 46 44 44 45 47 49 51 51 51 51 50 50 50 49 49 47 46 46 46 45 44 43 42 43 44 45 45 45 45 45 46 46 44 45 45 44 41 40 39 39 39 38 38 37 36 36 36 36 36 36 36 35 36 36 37 38 38 39 38 38 37 36 35 35 37 39 41 43 44 43 42 41 39 38 37 36 34 34 34 35 36 37 37 37 36 35 34 34 34 35 36 39 40 40 40 40 40 40 40 40 39 38 37 36 36 36 37 37 37 36 35 34 33 32 32 32 33 34 34 35 36 37 37 37 37 36 35 35 35 35 34 34 36 37 38 38 39 37 36 35 35 35 34 33 32 30 30 31 32 32 31 30 30 30 31 31 32 32 31 31 32 32 32 31 31 31 
53 52 52 52 55 56 54 52 52 54 55 54 52 51 50 47 45 44 44 43 44 45 46 48 49 49 48 47 45 45 47 48 50 51 52 52 52 52 52 53 53 50 48 47 46 45 44 43 43 43 43 44 44 44 44 44 45 47 48 48 48 47 45 43 41 40 39 38 38 38 37 37 37 38 37 37 37 36 36 36 37 37 38 39 39 39 38 37 36 35 35 36 38 40 41 42 42 41 40 39 38 37 36 33 33 33 34 36 37 37 37 36 35 34 33 34 35 36 39 40 41 41 40 40 39 38 38 37 36 36 36 36 36 37 37 37 36 35 34 33 32 32 32 33 34 35 36 37 37 37 36 36 35 35 35 36 36 35 35 36 37 37 38 38 36 35 35 34 34 33 32 31 30 30 31 32 32 31 31 31 31 31 31 31 31 30 31 32 32 32 32 31 31 
54 52 51 52 53 56 56 54 52 54 56 56 54 52 51 47 46 46 46 46 47 48 49 50 51 50 49 48 47 47 49 50 51 52 53 53 53 54 55 56 55 52 50 48 46 45 45 44 43 44 44 45 44 44 44 44 46 48 50 51 50 48 47 46 43 41 40 39 39 38 38 38 38 39 39 38 38 37 37 37 37 37 38 38 38 38 37 36 35 35 35 36 37 38 39 40 40 40 39 38 37 36 35 33 32 32 33 35 36 36 36 35 35 35 34 33 35 36 39 40 41 41 40 39 38 37 36 36 35 35 35 35 36 37 37 37 36 35 34 33 33 33 33 34 36 37 38 38 37 36 35 35 34 34 35 36 36 35 35 36 37 37 38 38 36 35 35 34 34 33 32 31 30 30 31 32 32 31 31 31 31 31 31 31 31 30 31 32 32 32 32 31 31 
54 52 51 51 52 55 57 56 55 56 57 57 55 53 50 47 47 48 49 50 51 52 52 53 53 52 51 50 49 50 51 52 51 52 53 53 53 54 55 56 55 52 50 48 46 45 45 44 43 44 44 45 44 44 44 44 46 48 50 51 50 48 47 46 43 41 40 39 39 38 38 38 38 39 39 38 38 37 37 37 37 37 38 38 38 38 37 36 35 35 35 36 37 38 39 40 40 40 39 38 37 36 35 33 32 32 33 35 36 36 36 35 35 35 34 33 35 36 39 40 41 41 40 39 38 37 36 36 35 35 35 35 36 37 37 37 36 35 34 33 33 33 33 34 36 37 38 38 37 36 35 35 34 34 35 35 35 35 35 36 36 36 36 36 35 34 34 33 33 33 32 32 31 30 31 31 32 32 31 31 31 31 31 31 30 29 30 32 32 32 32 31 31 
54 52 51 51 52 55 57 56 55 56 57 57 55 53 50 47 47 48 49 50 51 52 52 53 53 52 51 50 49 50 51 52 52 53 53 53 54 55 56 57 56 53 51 49 47 47 46 45 45 45 45 45 44 43 44 44 46 49 51 53 52 50 49 48 46 44 42 41 40 39 39 39 40 40 40 40 39 38 38 38 37 37 37 36 36 36 36 35 35 34 35 35 36 37 38 39 39 39 38 37 36 35 34 32 31 31 32 34 35 36 35 35 36 36 34 33 34 36 39 40 41 41 40 39 37 36 35 35 34 34 34 35 36 37 37 37 36 36 35 34 34 34 34 36 37 38 38 38 37 36 35 34 33 33 34 35 34 34 35 35 35 34 34 34 33 33 33 33 33 34 33 33 32 31 31 31 31 31 32 32 31 31 31 31 29 29 29 31 32 32 32 32 31 
53 52 51 51 51 53 55 56 56 56 56 55 53 51 49 49 50 52 54 56 57 57 57 56 55 54 53 52 51 51 52 53 53 53 53 53 53 54 56 56 55 53 52 51 50 49 49 48 47 46 46 45 44 43 43 44 46 49 51 53 52 51 49 49 48 46 44 42 41 41 41 41 41 42 41 41 40 41 41 40 39 37 36 35 35 35 34 34 34 34 34 35 35 36 37 38 39 38 37 36 35 35 34 32 31 31 31 33 34 35 34 35 36 36 34 33 34 36 39 40 40 40 39 38 36 35 34 34 34 34 34 35 36 37 37 37 36 36 35 35 35 35 36 37 38 37 36 36 36 36 34 33 33 33 34 35 34 33 33 33 33 33 32 33 32 32 33 33 34 35 34 34 34 33 33 32 31 31 31 31 31 30 30 29 28 28 29 30 31 32 32 31 31 
53 52 51 50 50 51 52 52 53 52 51 50 49 48 48 50 53 56 59 61 62 62 61 59 57 55 53 52 52 52 53 53 52 52 51 51 52 53 55 56 55 54 53 52 51 52 52 51 49 47 46 45 44 43 43 43 45 47 50 52 52 51 50 49 49 48 45 44 43 42 42 42 43 43 43 43 43 44 45 45 42 38 36 35 34 34 34 34 34 34 34 34 35 36 38 39 40 39 37 36 35 34 34 32 31 31 31 32 33 34 34 34 35 35 34 34 35 36 38 39 39 38 38 37 36 35 34 34 34 34 35 36 36 37 36 36 36 36 36 36 36 36 37 38 38 36 34 34 34 34 34 33 33 33 34 34 33 32 32 32 32 31 31 31 32 32 33 34 35 34 33 33 34 34 34 34 33 32 32 31 31 30 30 29 28 28 29 29 30 31 31 31 32 
51 51 50 49 49 49 49 49 48 47 45 45 44 45 47 51 55 59 62 65 66 65 64 61 58 55 53 52 52 52 52 52 52 51 50 50 50 51 53 55 56 54 53 52 51 53 54 54 52 49 47 45 43 42 42 42 43 45 47 50 50 50 50 49 49 48 46 45 44 44 44 44 45 45 45 46 47 49 50 48 44 40 37 35 35 34 34 34 35 35 35 35 35 36 38 40 40 39 38 36 35 34 34 33 33 32 32 32 33 34 34 34 34 35 35 35 36 37 38 37 37 37 36 36 35 35 34 34 34 34 35 36 36 37 36 36 36 36 37 37 37 38 39 39 37 35 34 33 32 32 33 34 33 33 34 33 32 31 31 31 31 30 30 30 31 32 32 33 33 33 32 32 32 33 34 35 34 33 33 32 32 31 31 30 30 29 29 29 29 30 31 31 32 
51 50 49 49 48 48 47 46 44 42 41 40 41 43 45 52 56 60 64 66 67 66 64 61 58 55 52 51 51 51 51 51 50 50 49 48 49 50 51 54 55 53 51 50 51 55 58 57 54 51 47 44 42 41 40 40 41 42 44 47 48 49 49 48 47 47 46 46 45 45 45 46 46 47 49 50 51 53 53 50 44 40 37 36 35 35 35 35 35 36 35 35 36 37 38 40 40 39 38 36 35 34 35 35 34 34 33 33 33 34 34 35 36 36 37 37 37 38 37 36 36 35 35 35 35 35 35 34 34 34 35 36 36 36 36 36 37 37 38 38 38 39 40 40 38 35 34 33 31 31 32 33 34 34 33 32 32 31 31 31 30 30 30 30 30 30 31 31 31 31 32 32 31 31 33 34 35 34 34 33 33 33 33 32 31 30 29 28 29 29 31 32 33 
50 50 49 48 48 47 46 44 42 39 37 37 38 41 45 52 56 60 63 65 65 64 62 59 56 53 51 50 49 50 50 50 49 49 48 47 47 48 50 52 53 51 49 49 53 58 60 59 55 51 47 44 42 40 39 39 39 41 42 46 48 49 49 48 46 45 45 45 46 46 46 47 47 48 52 54 55 54 51 48 42 39 37 36 35 35 35 35 36 36 36 36 37 37 39 39 39 38 37 35 35 35 36 37 36 35 34 34 34 34 35 36 37 38 38 39 39 38 37 36 35 34 35 35 36 36 36 35 35 35 35 35 36 36 37 37 37 38 38 38 39 39 40 40 39 37 34 33 31 31 31 32 34 33 32 32 32 32 31 31 30 30 30 29 30 30 30 31 31 31 32 32 31 31 31 33 34 34 34 34 34 34 34 33 32 31 29 29 28 29 31 32 33 
50 50 50 49 48 47 45 43 41 38 37 37 39 42 46 53 56 58 60 61 61 60 58 56 54 51 49 48 47 48 48 48 48 48 47 47 46 46 48 49 50 49 49 49 56 60 61 58 55 50 46 43 41 40 39 38 39 40 41 46 48 49 48 47 45 44 43 43 45 46 47 47 47 49 54 55 54 50 46 42 38 38 38 37 36 35 34 35 35 36 36 37 37 38 38 39 38 37 36 35 35 36 37 38 38 36 35 34 34 34 35 36 37 38 39 39 39 38 37 35 35 34 35 35 36 37 37 36 35 35 35 35 36 37 38 38 38 38 38 38 38 39 39 40 40 39 36 33 31 31 31 32 33 33 32 32 32 32 32 31 30 30 30 29 30 30 31 31 32 32 32 32 31 31 31 31 33 35 34 34 34 34 34 34 33 32 30 29 29 30 31 32 34 
51 51 51 50 49 47 46 44 41 40 39 40 42 46 50 56 56 56 56 56 56 55 54 53 51 49 48 47 46 47 47 47 48 47 47 46 45 44 45 46 46 47 48 50 57 60 59 57 53 48 45 42 41 40 39 39 39 40 41 45 47 48 47 46 44 43 42 42 44 46 47 47 47 50 53 51 48 46 46 43 39 38 38 37 36 35 34 34 34 35 36 36 37 37 38 38 37 36 35 35 35 36 37 39 38 37 35 34 34 34 34 35 36 37 38 38 38 38 36 35 35 35 35 36 36 37 37 36 36 35 35 35 36 38 38 38 38 38 38 38 38 38 38 38 38 38 36 34 31 31 31 32 33 34 34 33 33 32 31 31 31 30 30 30 30 31 31 32 32 32 32 32 32 32 31 31 32 34 34 34 34 34 34 34 33 32 31 30 30 30 31 32 34 
52 53 53 52 50 49 47 45 43 42 43 44 47 52 56 58 57 55 54 53 52 51 51 50 48 47 46 45 45 46 47 47 47 47 46 45 43 42 43 44 44 45 47 50 57 59 58 56 52 47 44 43 42 41 41 40 40 41 41 44 46 46 46 45 44 42 41 41 42 44 46 47 47 50 52 50 49 50 53 50 43 40 39 37 36 35 34 34 34 34 35 36 36 37 38 37 37 36 35 35 36 37 38 38 37 36 34 33 33 33 33 34 35 36 37 37 36 36 34 34 34 34 35 35 36 37 37 36 36 35 35 35 36 38 38 38 38 37 37 37 37 36 36 36 36 36 36 35 33 32 32 33 33 33 33 33 33 32 31 31 31 30 30 30 30 31 32 32 32 33 33 32 32 32 32 32 32 35 35 34 34 34 34 34 34 33 32 31 30 31 32 33 34 
53 54 54 54 52 51 49 47 46 45 46 49 53 57 62 61 58 55 52 51 49 49 48 47 46 45 45 45 45 46 47 48 48 47 46 44 42 41 41 42 43 43 45 49 57 59 58 56 53 49 47 45 45 44 44 43 42 42 42 43 45 45 46 45 44 42 41 41 41 43 45 46 46 47 54 56 59 60 59 54 47 41 39 38 36 35 34 33 33 33 34 36 37 37 38 38 37 36 36 36 37 37 38 37 36 35 33 33 32 32 33 33 34 34 35 35 34 34 33 33 33 34 34 35 35 36 36 36 36 36 36 36 36 37 38 38 37 36 36 36 35 35 35 35 35 34 34 34 33 32 32 32 31 31 31 32 33 33 32 31 31 30 30 30 31 31 32 33 33 33 33 32 32 32 32 32 32 35 35 35 34 34 34 34 34 33 32 32 32 32 32 32 32 
54 55 55 54 53 52 50 49 48 48 50 53 56 60 63 62 59 55 52 50 49 48 47 46 45 45 44 44 45 47 48 48 48 47 45 43 41 40 39 41 42 43 44 48 56 59 60 60 57 55 52 50 49 48 47 46 45 44 43 43 44 45 46 46 45 43 41 40 40 41 43 45 45 45 54 60 63 63 60 54 48 43 40 38 37 35 34 33 32 32 34 36 37 38 39 39 38 37 37 37 37 37 37 36 35 33 32 32 31 32 32 33 33 33 33 33 32 32 32 32 33 33 33 34 35 35 36 37 37 37 37 37 37 37 37 37 36 36 35 35 34 34 34 34 34 33 33 32 31 31 31 31 30 30 30 31 32 33 32 31 31 31 31 31 31 31 32 33 33 33 33 32 32 32 32 32 32 34 35 35 35 34 35 35 35 34 34 34 32 31 31 30 31 
53 54 54 54 53 53 52 51 51 51 53 55 58 61 64 62 60 57 54 52 50 49 48 46 45 44 44 44 45 48 49 49 48 47 45 42 40 39 38 40 41 43 44 47 55 60 63 64 64 62 60 57 55 52 50 49 47 45 44 43 44 45 46 46 45 43 41 40 40 40 41 43 44 44 51 58 62 61 57 53 49 45 42 40 38 36 34 33 32 33 36 38 37 38 39 40 39 38 37 37 36 36 36 34 33 32 31 31 31 31 32 32 32 32 32 31 31 31 31 31 32 32 32 33 34 35 36 38 38 38 38 37 37 37 36 36 36 35 35 35 34 34 34 34 33 33 33 32 31 30 30 30 30 30 30 30 31 32 33 32 31 31 31 31 31 32 32 33 33 33 33 32 32 32 32 32 32 33 35 36 35 35 36 36 36 36 35 34 32 31 30 30 30 
52 53 53 53 53 53 53 53 53 53 54 56 58 60 63 62 61 60 57 55 54 52 50 48 47 45 45 45 46 48 49 49 48 47 45 42 40 39 39 40 42 44 45 46 54 60 65 69 71 70 67 63 59 56 53 50 48 46 44 44 45 46 47 46 45 42 41 40 40 40 40 42 44 44 48 54 59 59 56 54 52 48 45 42 39 36 34 33 32 35 37 37 37 38 40 40 39 38 37 36 35 35 34 33 32 31 31 31 31 31 32 32 32 31 31 30 30 30 30 31 31 31 32 32 34 35 37 39 39 39 39 38 38 37 37 36 36 35 35 35 34 34 34 33 33 33 32 32 31 30 30 30 30 30 29 30 30 31 33 33 32 31 31 31 31 32 32 32 32 32 32 32 31 31 31 31 31 33 35 36 35 35 36 36 36 35 34 32 31 31 31 31 30 
51 51 52 52 53 54 54 55 55 56 56 57 58 60 62 63 62 61 61 60 58 56 53 51 49 47 46 45 46 48 49 49 48 47 45 43 41 40 40 41 43 45 45 46 53 58 65 71 75 75 72 68 63 58 54 51 49 47 45 45 45 46 46 46 44 42 41 40 40 40 40 42 44 45 46 50 55 57 55 54 52 49 46 42 39 36 34 32 32 35 36 36 36 38 39 39 39 37 36 35 34 34 34 33 32 31 31 31 31 32 32 32 31 31 30 30 29 29 30 30 30 31 31 32 34 36 38 40 40 40 39 38 38 38 38 37 37 36 35 34 34 34 33 33 33 32 32 32 31 31 30 30 30 30 30 30 30 31 32 33 33 32 31 31 31 31 32 32 32 32 31 31 31 30 30 30 31 33 35 35 35 34 34 34 34 34 33 31 31 31 32 32 31 
50 50 51 52 53 55 56 56 57 58 58 58 59 60 62 62 61 60 62 62 61 59 57 54 51 48 47 46 47 49 49 49 48 47 46 44 43 42 41 42 43 45 46 46 51 56 62 69 73 75 73 68 63 58 55 52 50 48 46 45 45 46 46 45 43 42 41 40 40 40 41 42 44 45 46 50 53 53 51 48 45 45 42 40 38 35 33 31 31 34 34 34 35 36 38 38 37 36 35 34 34 34 34 33 32 32 32 32 32 32 32 32 31 30 30 29 29 29 30 30 30 31 31 32 34 36 39 40 41 40 39 38 38 38 38 38 37 36 35 34 34 34 34 33 33 32 32 32 32 31 31 31 30 30 30 30 31 31 31 32 32 32 32 31 31 31 32 32 32 32 31 31 30 30 30 30 31 33 34 34 33 33 34 34 34 33 32 31 31 32 32 32 32 
51 51 51 52 54 56 57 58 59 59 59 59 59 60 62 61 59 58 60 62 63 62 60 58 54 50 48 47 47 49 49 49 49 48 47 46 45 44 43 43 44 46 47 47 49 53 59 64 68 70 68 65 61 57 54 52 50 48 46 44 44 45 45 44 43 42 41 41 41 41 42 42 43 45 47 50 51 46 43 40 39 40 39 37 36 33 31 30 31 33 33 33 34 35 35 35 35 35 34 34 34 34 34 34 33 33 33 33 33 33 33 32 31 31 30 29 29 29 30 30 30 30 31 32 34 36 39 40 41 40 39 38 37 38 38 37 37 36 35 35 35 35 34 34 33 33 33 33 32 32 32 32 31 31 31 32 31 31 31 31 31 32 32 32 32 32 32 32 32 31 31 31 31 30 31 31 31 32 33 33 32 33 33 33 34 33 32 31 31 32 32 32 32 
52 52 52 53 55 57 59 60 61 61 60 60 60 60 63 63 60 58 58 60 63 64 63 61 57 53 50 48 48 49 50 50 49 49 48 47 46 46 45 45 45 46 47 48 49 51 55 59 62 63 62 60 57 55 53 51 50 48 46 44 44 45 45 45 44 43 42 41 42 42 42 42 43 45 48 49 47 42 38 37 36 36 36 36 34 32 31 30 31 32 32 32 33 33 33 33 33 33 34 34 34 35 35 35 35 35 35 35 35 34 34 33 32 31 31 30 29 29 29 30 30 30 31 32 34 36 38 40 40 39 38 37 36 36 37 36 36 36 36 36 35 35 35 35 34 34 33 33 33 33 32 32 33 33 33 33 32 32 31 31 30 31 31 33 33 33 32 33 33 32 32 32 32 32 31 31 31 31 32 33 32 32 33 33 33 33 32 32 32 32 31 31 32 
53 53 53 54 56 58 60 62 62 62 61 60 60 60 63 64 61 58 57 59 63 65 65 63 60 56 52 50 49 49 50 50 50 50 49 49 48 47 46 45 45 45 46 48 50 51 52 55 56 57 56 55 53 52 52 51 49 48 46 44 44 46 46 46 45 44 43 42 42 42 42 42 43 44 48 49 47 42 38 37 36 36 36 36 34 32 31 30 31 32 32 32 33 33 33 33 33 33 34 34 34 35 35 35 35 35 35 35 35 34 34 33 32 31 31 30 29 29 29 30 30 30 31 32 34 36 38 40 40 39 38 37 36 36 37 36 36 36 36 36 35 35 35 35 34 34 33 33 33 33 32 32 33 33 33 33 32 32 31 31 30 31 31 33 33 33 32 33 33 32 32 32 32 32 31 31 31 31 32 33 32 32 33 33 33 33 32 32 32 32 31 31 32 
53 53 53 54 56 58 60 62 62 62 61 60 60 60 63 64 61 58 57 59 63 65 65 63 60 56 52 50 49 49 50 50 50 50 49 49 48 47 46 45 45 45 46 48 50 51 52 55 56 57 56 55 53 52 52 51 49 48 46 44 44 46 46 46 45 44 43 42 42 42 42 42 43 44 47 48 45 40 36 34 34 34 36 36 34 32 31 31 32 33 33 33 32 32 32 32 32 32 33 33 34 35 35 35 35 35 36 36 35 35 34 34 33 32 31 31 30 30 30 30 30 31 31 32 34 36 37 39 39 38 37 35 34 34 35 35 35 36 36 36 36 36 36 35 34 34 34 34 33 33 33 33 34 34 34 34 33 32 32 31 30 30 31 32 32 33 33 33 34 34 33 33 32 32 31 30 30 30 31 32 32 32 32 33 33 34 33 32 32 32 32 31 32 
54 54 54 55 57 59 61 62 62 61 60 59 59 59 61 62 60 57 57 59 62 65 67 66 62 58 54 51 49 48 49 49 50 50 50 49 48 47 45 44 44 44 45 47 51 51 52 52 52 52 51 50 50 50 50 49 48 47 45 44 45 47 47 47 46 44 43 43 43 43 43 42 42 44 45 46 44 40 35 33 33 35 37 37 35 34 33 33 34 34 34 33 32 31 31 31 31 31 32 33 34 34 35 35 35 35 36 36 35 35 34 34 33 33 32 32 31 31 30 30 31 31 32 32 33 35 36 37 37 36 35 33 32 32 33 34 35 35 36 36 36 36 36 35 35 34 34 34 33 33 33 33 34 34 34 34 33 32 32 31 31 31 31 31 31 32 32 32 33 33 33 32 32 31 31 30 30 30 30 31 32 32 32 33 33 34 33 33 33 33 32 32 32 
54 54 54 55 57 59 61 62 61 60 58 57 57 58 60 59 57 55 55 57 61 65 67 66 63 59 55 51 48 47 47 48 49 50 50 49 48 46 44 43 42 43 44 46 51 53 53 52 51 51 50 49 48 48 48 48 47 46 45 44 46 47 48 48 47 45 44 43 43 43 43 42 42 43 44 44 44 41 36 33 34 36 38 37 36 35 35 36 36 36 35 33 32 32 31 31 30 31 31 32 33 34 34 34 34 35 35 35 35 35 35 34 34 33 33 32 32 31 30 31 31 32 32 32 33 34 35 35 35 34 33 32 31 32 32 33 34 35 35 36 36 36 36 35 35 34 34 34 33 33 33 33 33 33 33 33 32 32 32 32 32 32 31 31 31 31 31 31 31 31 31 31 31 31 31 30 30 30 30 31 32 33 33 33 34 34 34 33 33 33 33 33 33 
54 54 55 56 57 59 60 60 59 57 56 55 55 56 58 57 55 53 53 55 59 63 65 65 62 58 54 50 47 45 46 47 48 49 49 48 47 45 44 42 42 42 43 45 50 52 53 53 53 52 51 49 48 48 47 46 46 45 44 44 46 47 48 48 47 46 45 44 44 43 43 42 43 44 43 43 44 42 38 35 35 37 38 37 36 36 36 37 38 37 36 34 33 33 32 31 31 31 31 32 33 34 34 34 34 35 35 35 35 36 36 35 35 34 33 33 32 31 31 31 32 32 32 32 33 33 34 34 34 33 32 32 32 32 32 32 34 34 35 35 35 35 35 35 35 34 33 33 33 33 33 33 33 33 33 32 32 32 32 33 32 32 32 31 30 30 30 30 30 31 31 31 31 31 30 30 30 30 30 30 32 33 34 34 35 35 34 33 33 33 33 33 33 
